-0.031 0.000 2.057
-0.016 0.000 2.000
0.000 -0.002 1.657
0.000 0.082 1.998
0.000 0.070 1.988
0.011 0.000 2.078
0.000 0.000 2.153
0.025 0.184 2.003
-0.000 0.074 2.001
0.000 0.000 1.999
-0.159 -0.002 2.140
0.000 0.000 1.984
0.004 0.075 2.000
0.074 -0.002 1.835
0.000 -0.002 1.978
0.000 0.076 2.124
0.107 -0.008 2.000
-0.002 -0.053 2.000
-0.003 0.185 2.000
0.000 -0.093 2.166
-0.085 -0.003 2.111
0.000 0.000 1.999
-0.002 0.089 2.142
-0.002 0.098 1.753
0.000 -0.003 2.000
-0.020 -0.004 2.165
0.111 0.000 2.000
0.000 -0.004 2.283
0.101 0.000 2.001
-0.004 0.000 2.184
0.105 0.000 2.141
0.005 0.033 2.000
-0.003 0.000 2.194
0.000 0.000 2.172
0.000 0.100 2.000
-0.003 0.086 1.846
0.000 0.000 1.850
0.027 0.091 2.000
-0.114 0.107 1.998
0.000 0.000 2.173
0.000 0.031 2.179
0.103 -0.000 1.539
-0.075 0.043 2.001
-0.004 -0.037 2.180
-0.077 0.000 1.998
0.000 0.129 2.000
-0.002 0.094 2.000
-0.024 -0.002 2.179
0.053 0.000 2.000
0.036 -0.091 2.002
-0.043 0.109 2.000
-0.007 -0.005 2.235
-0.006 -0.004 2.000
-0.006 0.086 2.194
-0.005 -0.038 2.192
0.098 0.111 1.998
-0.108 -0.015 2.000
0.020 0.042 1.515
0.000 -0.022 2.199
0.000 -0.002 2.000
0.102 0.000 2.000
0.000 -0.105 2.205
0.140 0.059 2.000
0.000 0.000 2.156
0.000 0.000 2.199
0.000 0.119 2.028
0.013 0.126 2.000
0.093 0.102 2.000
-0.001 0.115 2.004
0.133 -0.035 2.003
-0.047 -0.009 2.231
0.000 0.000 2.008
0.146 -0.002 1.729
-0.028 -0.012 2.000
-0.006 0.000 2.000
-0.003 0.000 2.000
0.000 0.155 2.000
0.237 0.047 2.001
-0.012 0.000 2.000
0.000 -0.003 2.223
0.000 0.000 2.002
0.109 0.000 1.842
0.083 0.116 2.000
-0.007 -0.035 2.269
0.000 0.000 1.996
0.000 0.152 2.001
0.164 0.003 2.008
0.000 0.000 2.133
-0.004 0.102 2.000
0.000 -0.062 2.230
0.000 0.000 2.000
-0.015 0.108 2.271
0.020 0.000 2.115
0.000 -0.005 2.266
0.000 -0.005 2.270
0.000 0.151 2.000
-0.045 0.000 2.232
0.000 0.000 1.724
0.161 0.000 2.019
0.034 0.000 2.000
0.000 0.000 1.999
-0.156 -0.002 2.242
0.000 0.000 1.549
0.000 0.045 2.000
0.000 -0.099 2.000
0.000 0.000 1.998
0.007 0.000 2.108
0.040 0.007 2.000
0.034 0.130 2.000
0.151 0.041 2.000
0.113 0.003 2.000
-0.006 0.000 1.887
0.002 0.000 2.282
-0.003 0.000 2.055
0.185 0.002 2.000
0.000 -0.021 2.257
-0.082 0.153 2.000
0.000 0.000 1.728
-0.050 0.000 2.000
-0.005 -0.057 2.276
0.160 0.056 2.000
0.000 0.002 2.000
0.000 0.000 2.255
0.000 0.000 2.000
0.152 0.002 1.955
-0.017 0.000 2.298
0.035 0.020 2.000
-0.001 0.172 2.000
0.073 0.033 2.000
0.006 0.000 2.000
0.031 -0.002 2.000
0.000 0.001 1.999
-0.015 0.000 2.000
-0.013 0.000 1.994
0.000 -0.007 2.000
-0.004 -0.037 2.366
0.160 0.040 1.997
0.012 0.052 1.709
0.000 -0.271 1.993
0.140 0.000 2.002
0.024 -0.045 2.165
-0.077 0.051 2.006
0.000 -0.122 2.319
-0.062 0.007 2.188
0.000 0.202 2.017
-0.011 0.029 2.000
0.000 0.000 2.310
-0.001 0.073 2.000
0.000 0.146 2.005
0.000 -0.084 2.006
-0.075 0.000 2.029
0.000 -0.003 2.267
0.149 -0.056 2.000
-0.007 -0.150 2.000
-0.102 0.170 2.000
-0.013 -0.046 2.297
0.199 0.000 2.134
0.192 0.000 1.497
0.000 0.039 1.495
0.000 -0.079 2.296
0.000 -0.006 1.678
0.165 0.000 1.721
0.181 -0.167 1.997
-0.044 -0.018 2.318
0.000 -0.005 1.940
-0.015 0.000 2.130
0.050 0.101 2.000
0.000 0.054 2.006
-0.005 0.000 2.000
0.048 0.012 2.000
0.000 -0.228 2.363
0.190 -0.001 1.733
0.003 0.000 2.218
-0.185 0.060 2.002
-0.251 0.012 2.188
-0.086 0.062 2.000
0.016 0.000 2.000
0.163 0.000 2.000
0.209 -0.083 2.000
0.000 -0.121 1.833
0.000 0.000 1.986
0.000 -0.119 2.000
-0.071 0.002 2.000
0.000 0.000 2.037
0.000 0.000 2.001
-0.070 -0.076 2.001
-0.075 -0.151 1.998
-0.000 -0.179 2.000
0.000 -0.064 2.001
0.000 -0.010 2.000
-0.000 0.000 1.723
-0.185 -0.000 1.745
0.000 -0.147 1.729
0.000 -0.025 1.884
0.003 0.012 2.000
-0.009 0.000 2.000
-0.049 -0.010 2.003
-0.000 0.075 1.768
-0.052 0.006 1.768
-0.001 -0.142 2.000
0.000 0.000 1.875
-0.048 0.000 1.976
0.000 0.005 2.000
-0.056 0.000 2.000
0.002 -0.028 2.000
0.000 -0.051 1.999
0.005 0.000 2.000
-0.005 -0.088 1.796
0.000 0.168 1.856
0.000 0.000 1.828
0.112 0.000 1.806
0.000 -0.110 2.237
-0.001 -0.115 2.324
-0.045 0.000 2.000
0.000 0.000 1.841
-0.068 -0.000 2.000
0.000 0.000 2.142
0.140 -0.059 1.998
0.000 0.000 2.000
-0.041 -0.156 1.997
-0.002 -0.280 2.000
0.000 -0.008 1.898
0.000 0.000 2.000
0.000 -0.024 2.000
0.000 -0.075 2.000
0.000 0.006 1.990
-0.000 0.106 1.836
-0.083 0.000 2.001
0.001 0.000 2.000
0.036 -0.000 1.917
0.000 0.000 1.999
-0.080 0.000 1.907
-0.190 0.000 1.905
-0.057 -0.000 1.835
-0.026 0.000 1.976
0.000 -0.001 2.297
0.000 -0.019 2.000
0.000 0.000 1.998
-0.001 0.000 2.026
0.000 0.000 1.927
0.105 -0.005 2.000
-0.026 -0.035 2.000
0.000 0.000 1.935
0.000 0.000 1.922
-0.041 0.000 2.000
-0.010 -0.035 2.000
-0.143 0.000 2.000
-0.000 0.000 1.886
0.200 -0.000 1.917
0.007 0.000 2.082
-0.000 -0.013 2.126
-0.000 -0.031 2.002
-0.000 -0.114 1.958
0.044 -0.000 2.000
-0.017 -0.098 2.000
-0.038 0.000 2.000
0.000 -0.018 2.000
0.002 0.000 1.695
-0.246 -0.005 2.001
-0.015 -0.006 2.001
0.000 0.000 1.962
0.000 0.072 2.000
-0.003 0.004 2.000
0.002 0.049 2.007
-0.016 0.000 1.988
0.001 0.002 1.716
0.003 -0.022 2.000
0.001 -0.001 1.957
0.000 -0.003 2.000
-0.004 0.000 1.994
0.001 0.000 2.000
0.095 -0.003 2.000
0.000 0.154 2.000
0.005 0.000 2.001
0.000 0.000 2.000
0.002 -0.003 2.032
0.000 0.003 2.000
0.000 -0.117 2.000
0.009 0.026 2.000
0.033 -0.000 2.016
0.004 -0.002 1.869
-0.094 0.023 2.002
0.000 -0.032 2.061
0.024 0.004 2.000
0.093 0.015 2.000
0.004 0.000 1.999
0.008 0.028 2.070
-0.001 -0.102 2.059
0.000 0.034 2.000
-0.001 0.000 2.000
-0.143 0.000 2.000
0.038 0.000 2.000
-0.001 -0.088 2.100
0.051 0.063 2.000
0.060 0.000 2.000
0.087 0.000 2.106
-0.003 0.000 2.329
0.000 0.000 2.389
-0.079 0.008 2.050
0.000 0.023 2.000
-0.041 0.003 2.073
0.087 0.000 2.000
-0.015 0.000 2.000
-0.060 0.078 2.000
0.000 0.000 2.147
0.000 0.000 1.999
0.000 0.096 2.000
0.000 0.002 2.000
0.020 0.000 1.999
-0.002 -0.147 2.152
-0.008 -0.042 2.000
0.000 -0.013 1.994
0.002 -0.036 2.152
0.100 0.000 1.998
0.003 -0.002 2.000
0.000 0.000 2.167
0.000 0.000 2.000
0.000 0.000 2.079
0.001 0.000 2.000
0.000 0.000 2.007
0.000 0.000 1.999
0.000 0.000 1.825
0.000 0.000 1.858
-0.022 0.091 2.002
0.076 -0.002 2.000
0.000 0.108 1.999
-0.065 0.000 2.003
0.000 0.091 2.000
0.000 -0.005 1.686
0.028 -0.061 2.005
-0.079 0.122 2.000
-0.008 -0.014 2.208
0.000 0.000 2.277
-0.041 0.000 2.000
0.075 0.000 2.000
0.131 -0.003 1.934
0.000 0.000 2.235
0.000 0.050 2.000
0.138 -0.002 1.498
0.000 -0.005 2.000
0.011 0.000 1.998
-0.004 -0.104 2.250
-0.046 0.014 2.149
0.000 0.050 2.007
-0.103 0.003 2.154
0.174 -0.010 1.756
0.058 0.000 2.003
-0.234 0.153 1.996
0.000 0.184 2.000
0.002 0.191 2.000
0.000 0.196 2.001
0.000 0.000 1.975
0.000 0.000 2.009
0.000 -0.004 1.798
-0.157 -0.145 2.000
0.000 -0.185 2.000
0.002 -0.003 1.747
-0.149 0.000 1.973
0.000 -0.005 1.744
-0.178 0.000 1.756
-0.061 0.004 2.004
-0.127 0.003 1.999
0.000 0.012 2.000
-0.088 0.000 2.005
-0.002 0.000 1.798
0.000 -0.059 2.000
-0.057 -0.101 2.001
0.000 -0.012 2.000
0.152 -0.007 2.000
0.004 -0.058 2.000
0.000 0.001 2.000
-0.126 0.000 2.000
-0.160 0.000 1.832
-0.004 -0.054 1.700
-0.161 0.000 1.996
-0.042 -0.003 1.904
-0.095 -0.003 2.000
0.000 0.037 2.000
0.001 0.000 2.000
0.010 0.001 1.872
0.000 -0.047 1.996
0.000 -0.000 2.000
0.000 0.000 2.012
0.000 -0.039 2.000
-0.261 -0.001 2.000
-0.089 -0.002 2.000
-0.002 -0.087 2.000
0.000 -0.060 2.000
-0.081 -0.046 1.999
0.016 0.002 2.000
-0.058 0.000 1.520
-0.202 -0.076 2.000
0.000 0.000 1.877
0.007 -0.065 1.790
0.001 0.000 2.001
0.144 0.000 2.000
-0.021 0.000 1.720
-0.071 -0.085 2.000
-0.000 -0.019 1.906
0.004 -0.057 2.000
0.000 -0.048 1.956
0.034 0.000 2.000
0.000 -0.063 1.899
-0.003 -0.047 2.000
-0.054 -0.072 2.000
0.032 -0.046 2.000
-0.206 0.000 1.907
0.003 0.000 1.911
-0.064 0.000 2.000
-0.000 -0.024 2.102
0.000 0.000 2.266
0.000 -0.044 1.946
-0.024 -0.000 1.806
-0.037 -0.105 2.000
0.000 0.000 2.001
-0.027 -0.104 2.000
0.063 -0.038 2.000
-0.051 -0.001 2.210
-0.004 0.000 2.311
-0.104 0.017 1.986
0.000 -0.012 2.002
0.000 0.000 2.000
0.025 0.001 1.942
0.000 -0.017 2.000
-0.010 0.000 1.887
-0.013 -0.011 2.000
0.000 -0.008 2.002
-0.034 0.002 2.000
0.000 -0.012 2.000
0.000 -0.020 2.009
0.000 0.145 2.000
0.213 -0.024 2.000
0.008 -0.029 2.000
0.001 0.000 2.045
-0.026 -0.011 2.000
0.001 -0.026 1.996
-0.015 -0.002 2.000
-0.128 0.010 2.000
-0.001 0.000 2.001
0.006 0.035 2.184
0.029 -0.068 2.000
-0.020 0.001 2.002
0.014 0.000 2.067
0.003 0.012 1.537
0.001 -0.093 2.045
-0.049 -0.001 2.000
0.038 -0.006 2.000
0.061 -0.002 2.089
0.001 0.054 1.567
-0.005 0.000 1.908
0.000 0.050 2.092
-0.283 0.043 1.996
0.000 0.045 2.003
0.007 -0.097 2.000
0.000 -0.005 2.151
-0.002 0.057 2.361
0.000 0.002 2.104
-0.000 -0.003 2.122
0.066 0.000 2.000
0.073 0.017 1.454
-0.005 0.000 2.000
0.000 0.000 1.800
0.122 0.083 1.999
-0.072 -0.001 2.146
0.041 -0.004 2.000
0.083 0.000 2.000
-0.007 0.000 1.749
0.000 0.000 2.062
0.000 0.104 2.016
0.108 0.000 2.000
0.000 0.000 2.000
0.117 0.054 1.999
0.000 0.000 2.178
0.075 0.000 2.000
0.037 0.015 1.783
0.000 0.011 2.000
0.001 0.049 2.135
0.000 0.081 2.000
0.004 0.131 2.000
0.033 0.000 2.000
0.126 0.017 2.122
0.000 0.025 2.224
-0.115 0.000 1.998
0.168 0.020 1.756
0.000 0.011 2.000
0.002 -0.005 2.000
0.120 -0.075 2.000
0.180 -0.008 2.181
0.134 -0.039 2.000
0.134 0.004 2.000
0.000 0.000 1.999
0.054 -0.034 2.003
-0.140 0.037 2.005
-0.083 0.000 1.999
-0.181 0.000 2.000
0.181 0.000 1.469
0.000 0.170 1.998
0.197 0.000 1.999
0.000 -0.017 1.686
0.042 0.000 1.539
-0.099 0.000 2.000
0.000 0.000 1.684
0.000 0.000 1.824
0.000 -0.086 2.037
-0.003 -0.128 1.838
0.000 0.000 2.041
-0.058 0.000 2.000
0.000 0.014 2.000
-0.034 0.000 1.796
0.001 0.048 2.000
-0.240 0.000 1.934
0.000 -0.031 2.000
-0.262 0.000 2.000
-0.062 0.009 1.866
-0.031 0.000 2.000
-0.018 0.022 1.486
-0.091 -0.020 2.000
-0.046 0.000 1.882
0.000 0.004 1.963
-0.038 0.005 1.701
0.006 0.013 2.000
0.001 0.000 2.000
-0.000 -0.067 2.000
0.000 0.001 1.954
-0.006 0.000 2.000
-0.000 0.164 1.998
-0.240 0.012 2.000
0.166 0.006 1.998
0.000 0.010 2.000
0.000 -0.010 2.000
0.000 -0.050 2.000
0.049 -0.004 2.000
-0.286 -0.004 2.100
0.000 0.000 1.996
-0.006 0.089 2.000
-0.052 0.080 2.000
-0.007 0.000 2.000
0.106 0.002 1.998
-0.092 0.103 2.005
0.028 0.000 2.005
0.019 -0.000 2.000
0.013 0.000 2.000
0.005 0.000 2.096
-0.012 0.039 2.001
-0.019 0.055 2.000
-0.003 0.073 2.245
0.049 0.011 1.742
0.005 -0.000 1.812
-0.025 0.000 2.000
-0.078 0.000 1.888
0.118 0.008 1.799
0.000 -0.069 1.998
-0.049 -0.040 2.000
0.007 -0.051 2.040
-0.068 -0.086 2.000
-0.000 -0.024 2.000
0.011 -0.012 2.000
0.041 0.003 1.919
-0.012 -0.233 1.999
0.000 -0.033 1.931
-0.125 0.000 1.997
0.004 -0.003 1.880
-0.003 0.138 2.026
0.005 -0.027 2.001
0.000 -0.003 1.951
-0.137 -0.005 2.000
-0.002 -0.031 2.115
-0.002 0.013 2.051
0.076 0.044 2.000
-0.013 0.087 2.000
-0.033 -0.002 2.175
-0.007 -0.038 2.000
-0.112 0.000 2.000
-0.061 -0.002 2.199
0.000 0.134 1.563
0.000 -0.103 2.000
0.000 0.000 1.835
-0.155 0.002 1.924
0.000 -0.008 1.935
0.000 -0.202 1.997
0.000 0.000 1.926
0.000 0.002 2.000
0.002 0.000 1.974
0.003 0.000 1.610
0.008 0.000 1.831
-0.007 0.000 2.000
0.000 0.057 2.001
0.000 -0.013 2.000
0.155 -0.003 1.943
-0.001 0.000 1.712
-0.140 -0.006 1.819
-0.177 0.042 1.998
-0.010 -0.048 2.000
-0.007 0.000 2.053
-0.028 -0.067 2.000
0.002 0.075 2.000
-0.000 -0.048 2.000
-0.053 0.000 2.004
0.000 0.068 2.000
0.009 0.000 2.000
0.000 0.000 2.056
-0.045 0.001 2.344
-0.060 -0.034 2.000
0.000 -0.033 2.001
-0.104 0.132 2.000
-0.002 -0.028 2.384
0.000 0.057 2.000
-0.025 0.000 2.183
0.000 0.001 1.973
-0.022 0.000 1.998
-0.009 -0.002 2.000
0.018 0.000 1.738
-0.000 0.000 2.032
-0.000 0.102 2.008
0.000 0.000 1.998
0.000 0.000 2.000
0.003 -0.014 2.000
0.002 0.005 2.015
0.014 0.000 2.156
-0.016 -0.018 2.000
0.000 0.088 2.000
0.000 -0.005 1.845
0.000 -0.016 2.001
0.170 0.107 1.999
0.042 0.000 2.001
0.000 0.000 2.132
0.000 0.000 2.276
0.000 0.000 2.155
0.000 0.125 2.000
-0.031 0.068 2.001
-0.077 0.004 2.000
-0.001 0.114 2.019
-0.035 0.111 2.000
-0.062 -0.028 2.000
0.124 0.000 2.000
0.001 0.000 2.148
-0.000 -0.050 1.722
0.065 0.000 2.000
-0.052 0.001 2.033
-0.038 -0.124 2.000
0.000 0.046 2.000
0.011 -0.006 2.003
0.000 -0.000 1.985
0.003 0.006 2.000
0.000 0.162 1.999
-0.003 -0.052 2.000
0.000 -0.004 1.681
0.000 -0.001 2.000
-0.013 0.000 2.000
0.076 0.100 1.999
-0.037 0.000 2.165
-0.159 0.117 1.999
-0.047 0.000 2.001
-0.144 0.119 2.000
-0.022 0.119 2.000
0.000 -0.017 2.300
0.040 0.000 2.000
0.000 -0.002 1.974
-0.038 0.000 2.000
0.021 0.000 2.000
0.000 0.037 1.926
0.057 0.000 2.003
0.000 0.109 2.000
-0.082 0.000 1.999
-0.001 -0.027 2.000
-0.003 0.000 2.000
0.114 -0.002 1.768
0.133 0.000 2.000
-0.016 -0.230 1.661
-0.322 -0.248 1.989
-0.311 -0.127 1.995
-0.199 -0.187 1.993
-0.105 0.000 1.778
0.000 0.000 1.688
-0.190 -0.002 1.800
-0.006 -0.167 1.779
-0.006 -0.089 1.802
0.000 -0.107 1.832
0.001 0.009 1.653
0.000 0.000 1.796
-0.084 -0.080 2.002
-0.178 -0.066 1.997
-0.078 -0.002 1.862
-0.085 -0.203 1.996
-0.007 -0.094 2.000
0.000 -0.001 1.822
0.001 -0.181 1.997
-0.002 -0.179 1.997
-0.067 0.000 1.702
0.001 -0.006 1.798
-0.007 0.003 1.677
-0.114 0.000 2.000
0.062 0.005 1.678
0.002 -0.099 2.000
-0.154 0.000 1.998
-0.174 0.018 1.714
-0.002 -0.100 1.812
-0.174 0.000 2.062
0.059 -0.170 1.997
0.012 -0.154 1.998
0.009 0.007 2.000
0.007 -0.070 2.074
-0.066 0.027 2.000
0.011 -0.006 1.822
0.000 0.043 2.001
-0.023 0.000 2.000
0.000 -0.140 1.998
-0.112 0.119 2.002
-0.000 -0.142 1.826
0.000 -0.033 2.000
0.000 -0.157 2.002
-0.000 -0.133 1.781
-0.153 -0.001 2.000
-0.067 0.000 2.002
0.000 0.011 2.000
-0.003 -0.181 2.315
-0.001 0.000 1.791
0.000 -0.046 2.221
0.000 -0.190 1.996
-0.027 -0.003 1.829
0.001 -0.161 1.997
-0.003 0.000 1.817
0.186 -0.069 2.000
-0.003 -0.064 1.841
0.000 -0.036 2.000
0.000 0.032 1.719
0.000 0.000 1.823
-0.001 -0.165 2.523
-0.011 -0.053 2.000
-0.076 0.239 2.000
0.000 -0.072 2.356
-0.000 -0.138 1.925
0.000 -0.060 2.248
0.000 -0.128 1.757
0.000 0.000 1.971
0.000 -0.140 1.999
0.000 0.324 2.001
-0.077 0.023 1.649
0.041 -0.132 2.000
0.000 -0.035 1.766
0.000 0.073 2.000
0.000 -0.011 2.381
0.015 0.058 1.749
0.000 -0.032 1.846
-0.179 0.046 2.000
0.225 -0.149 1.998
-0.189 0.000 2.409
0.000 -0.028 1.729
0.008 0.000 1.766
0.224 -0.006 1.837
0.000 -0.256 1.868
0.006 0.035 1.685
0.209 0.001 2.000
0.224 0.012 1.691
0.000 0.090 1.743
-0.037 -0.051 2.000
-0.064 -0.002 2.000
0.001 -0.054 2.000
0.000 -0.000 2.000
0.000 0.053 2.000
-0.054 0.044 2.002
0.037 -0.057 2.005
-0.116 -0.096 1.998
-0.116 0.000 2.000
0.007 0.000 1.805
0.005 0.047 2.000
-0.049 0.019 2.000
0.000 0.122 1.996
-0.110 -0.002 2.245
0.000 0.004 1.804
-0.097 0.000 1.848
-0.108 0.000 2.000
-0.029 0.000 2.003
-0.246 0.000 1.824
-0.098 -0.245 2.000
-0.049 -0.066 2.000
-0.090 -0.000 1.756
-0.031 0.000 1.958
-0.050 0.003 2.064
-0.003 -0.032 1.969
-0.000 -0.223 1.854
0.090 0.000 1.780
-0.045 -0.032 2.003
-0.081 0.000 1.999
-0.001 0.165 1.879
-0.045 0.085 2.000
-0.035 -0.050 2.001
0.018 0.000 2.000
0.001 -0.082 1.846
-0.116 0.050 2.001
-0.036 0.000 1.905
-0.069 0.000 2.103
-0.105 0.000 1.854
-0.036 0.039 2.001
0.006 0.207 1.821
0.000 -0.185 1.999
0.001 -0.039 2.000
-0.033 0.000 2.000
0.019 0.000 2.001
0.094 0.001 2.000
0.000 0.000 2.453
-0.036 -0.035 2.000
-0.074 0.011 2.000
-0.065 -0.000 1.718
-0.029 0.000 2.000
-0.027 0.017 2.000
0.003 0.052 1.888
-0.024 0.001 1.651
0.000 0.018 1.779
0.124 -0.040 1.998
-0.088 0.000 2.000
0.009 0.000 1.863
0.000 0.000 1.899
-0.000 0.000 1.864
-0.029 -0.123 2.000
0.000 -0.103 2.001
0.000 0.006 2.040
0.097 0.001 2.000
-0.109 -0.030 1.999
0.000 0.000 2.202
0.200 0.000 1.913
0.162 0.000 1.841
0.000 -0.026 1.892
-0.028 -0.000 2.135
0.000 0.001 1.879
0.000 -0.000 1.916
0.002 0.010 1.868
0.018 0.000 1.847
-0.084 0.014 1.873
0.000 0.000 1.919
-0.061 0.000 2.000
0.000 0.000 1.920
0.018 -0.017 2.000
0.052 0.002 1.874
-0.001 0.000 1.731
0.000 0.020 2.000
-0.281 0.000 2.000
0.001 -0.023 1.991
0.080 0.000 1.795
-0.028 0.000 2.000
-0.030 0.286 2.000
-0.019 0.000 2.000
0.000 -0.022 1.940
-0.020 0.000 2.000
-0.045 0.093 2.001
-0.048 -0.000 1.983
-0.000 -0.099 1.951
-0.026 0.000 1.639
-0.041 0.010 1.607
0.003 0.013 2.000
-0.029 0.000 2.000
0.000 0.000 1.914
0.001 0.000 2.000
0.003 0.000 2.000
0.001 -0.046 2.000
0.002 0.226 1.877
-0.027 -0.000 1.879
0.000 -0.039 1.809
-0.014 -0.039 2.000
-0.010 0.000 1.912
0.031 -0.044 2.001
-0.034 0.000 2.000
0.000 -0.001 1.952
0.000 0.002 2.034
0.018 0.000 2.000
-0.020 0.000 1.993
0.000 0.000 2.000
0.002 0.016 1.920
-0.027 -0.001 1.881
0.000 -0.020 2.001
0.000 0.000 1.995
-0.000 0.232 1.894
-0.042 -0.031 2.000
0.001 -0.012 2.000
-0.038 0.004 1.961
-0.006 0.000 2.001
-0.010 -0.000 1.885
-0.032 0.000 1.923
0.082 -0.000 2.000
-0.028 0.000 2.000
-0.014 -0.110 2.000
0.001 0.000 2.095
0.000 0.203 1.921
0.018 0.000 2.000
0.002 -0.044 2.000
0.000 0.000 2.059
0.105 -0.033 2.000
0.000 0.063 2.000
-0.035 -0.001 2.383
0.000 -0.033 1.999
0.007 -0.012 2.045
0.001 0.000 1.988
-0.010 0.002 2.000
0.001 0.000 1.960
-0.002 0.006 2.036
-0.008 0.000 1.848
0.002 -0.097 2.001
-0.078 0.000 1.971
0.000 -0.016 2.000
-0.003 -0.027 2.000
0.001 -0.011 1.987
0.001 -0.013 2.039
-0.055 0.000 2.000
-0.005 0.003 1.686
-0.004 0.000 2.000
-0.009 0.005 2.000
-0.002 -0.007 2.000
-0.006 -0.000 2.000
-0.012 0.220 2.000
-0.009 0.010 2.000
0.000 -0.004 2.000
-0.001 0.086 1.977
-0.058 0.000 2.001
-0.008 -0.000 1.994
0.000 0.000 2.000
0.017 0.000 1.975
-0.001 0.048 2.000
-0.000 -0.006 2.033
0.000 0.000 2.001
0.000 0.006 2.000
0.000 0.004 1.834
-0.047 0.007 2.000
-0.001 0.010 2.005
0.165 -0.000 2.000
0.015 0.000 2.000
0.006 -0.000 2.052
-0.001 0.030 2.016
-0.001 0.051 2.078
0.009 0.000 2.080
-0.000 0.000 2.018
-0.000 0.131 2.006
0.000 0.000 2.000
0.014 0.068 2.000
-0.058 0.014 2.000
0.000 0.025 2.000
0.012 -0.000 2.108
-0.007 -0.000 2.000
-0.003 0.018 2.233
-0.001 0.016 2.045
-0.011 0.001 2.032
-0.000 0.007 2.034
-0.001 0.019 2.062
-0.002 0.041 2.000
0.014 0.237 1.999
0.023 0.010 2.000
0.000 0.020 2.000
0.036 0.002 1.884
-0.000 0.024 2.118
0.027 -0.008 2.000
0.035 -0.001 2.007
0.000 -0.003 2.000
0.028 -0.000 2.102
0.000 0.079 2.047
0.028 -0.005 2.000
0.032 0.002 1.900
0.027 0.037 1.999
0.042 -0.001 2.047
-0.001 0.106 2.000
0.041 0.015 1.813
-0.001 0.000 2.043
0.041 0.000 2.046
0.003 0.052 1.923
0.000 0.000 2.004
0.000 0.047 2.002
0.021 0.049 2.000
0.200 0.032 2.000
0.052 -0.000 2.002
0.080 0.053 2.000
0.037 0.000 2.089
0.031 -0.003 2.098
0.197 0.000 1.999
0.000 -0.010 2.000
0.145 0.007 2.000
0.066 0.000 2.023
0.247 0.048 1.999
0.020 0.001 2.048
0.053 0.086 2.000
-0.003 0.063 2.406
-0.107 0.006 2.124
0.005 0.053 1.850
0.048 -0.002 2.000
0.027 0.013 2.000
-0.001 0.069 2.118
-0.008 0.081 2.000
-0.001 -0.040 2.131
-0.024 0.003 2.123
0.000 0.184 2.000
-0.006 -0.015 2.159
0.024 -0.005 2.000
-0.003 0.090 2.000
0.091 -0.001 1.618
0.087 -0.004 2.390
-0.005 0.014 2.169
0.102 -0.071 2.004
0.000 0.034 2.219
0.003 0.034 1.999
0.000 0.004 1.997
0.084 -0.004 2.155
-0.022 0.000 2.327
0.000 0.100 1.615
-0.066 -0.003 2.000
-0.006 0.000 2.178
-0.001 0.103 1.831
0.022 0.000 2.175
0.000 0.080 2.091
0.101 0.000 2.000
-0.200 -0.008 2.000
0.011 -0.039 2.112
0.118 0.085 1.998
0.043 -0.001 2.353
0.113 0.068 1.998
-0.004 0.131 2.178
-0.014 0.000 2.000
0.000 0.029 2.001
-0.005 0.032 2.188
0.118 -0.006 2.000
0.115 -0.020 2.000
-0.011 0.071 2.225
-0.105 0.000 2.176
0.116 -0.110 1.999
0.000 0.123 1.996
0.004 -0.009 2.190
-0.005 0.102 2.141
0.235 -0.008 2.207
0.243 0.000 1.997
0.002 -0.024 2.000
-0.002 0.110 2.128
0.152 0.106 2.000
0.132 0.000 2.000
0.007 0.029 2.000
0.106 -0.002 2.078
-0.039 0.002 2.220
0.250 0.044 2.002
0.138 -0.013 2.421
0.137 -0.003 2.048
0.008 0.049 1.886
0.079 -0.008 2.222
0.108 0.000 1.997
-0.013 0.112 2.326
0.000 -0.007 2.000
-0.002 0.000 2.000
0.000 -0.064 1.999
0.000 -0.004 1.841
0.081 0.000 1.999
0.000 -0.050 2.225
0.128 0.022 1.683
0.000 0.139 1.999
0.137 -0.018 2.000
0.002 0.116 1.934
0.136 -0.003 2.000
0.202 -0.006 2.265
0.000 0.046 2.001
0.000 -0.012 2.263
0.005 0.000 2.061
0.000 0.000 1.992
0.078 0.000 2.258
0.029 0.165 2.000
0.274 0.154 2.000
0.009 0.049 2.102
0.000 0.000 2.189
0.071 -0.003 2.265
0.019 0.053 2.122
0.043 0.032 1.473
0.000 0.001 2.000
0.000 0.125 1.988
-0.072 0.000 1.999
0.224 0.186 1.998
0.001 0.147 2.000
-0.051 0.149 2.000
0.012 0.000 1.782
-0.008 -0.140 2.257
0.000 0.000 2.000
0.010 0.000 1.749
0.131 -0.043 2.000
0.138 -0.055 2.000
0.186 0.000 2.010
0.197 -0.003 2.406
0.000 0.000 2.045
0.051 0.000 1.998
0.000 0.017 2.300
-0.014 0.130 2.000
0.187 0.000 2.402
-0.019 0.176 2.438
-0.094 0.063 2.003
0.063 0.000 2.001
0.177 -0.005 1.992
0.079 -0.004 2.000
0.178 0.000 2.001
0.000 0.000 2.038
0.155 0.000 1.570
0.173 -0.006 1.945
0.174 -0.010 1.709
0.178 0.018 2.000
0.025 0.185 2.002
0.053 0.011 2.278
0.000 -0.059 2.316
0.018 -0.010 2.184
-0.014 0.184 1.695
-0.057 0.000 2.332
0.000 0.013 2.205
-0.112 0.000 2.220
0.008 0.074 2.065
-0.045 0.067 2.008
-0.048 0.013 2.200
-0.119 0.194 2.000
-0.217 0.166 1.997
-0.003 -0.181 1.786
-0.000 0.000 2.000
-0.172 -0.072 1.998
-0.116 0.007 2.000
0.006 0.003 1.723
-0.000 -0.164 1.783
0.000 -0.058 1.961
-0.003 -0.145 2.359
0.140 -0.152 1.996
0.008 -0.047 1.999
-0.144 0.179 1.999
-0.111 -0.001 2.000
-0.123 -0.027 1.999
-0.012 0.000 1.850
-0.047 0.000 1.964
-0.055 -0.002 1.795
-0.174 0.000 2.000
-0.103 -0.000 1.697
-0.042 0.002 1.838
0.000 -0.270 1.999
0.060 -0.047 2.007
0.004 0.097 1.833
-0.004 -0.038 2.000
0.000 -0.076 2.000
0.000 -0.084 2.000
-0.000 -0.009 2.000
0.000 0.003 2.000
-0.020 0.001 1.680
0.000 -0.060 2.295
-0.001 -0.018 2.000
0.037 0.000 1.881
-0.021 -0.000 2.013
-0.104 0.000 1.917
-0.027 0.000 1.999
0.045 0.001 1.892
0.000 0.000 2.000
-0.016 0.000 1.994
0.000 -0.028 1.974
0.000 0.025 1.940
-0.001 0.000 2.116
0.000 -0.002 2.002
0.000 0.001 1.986
0.083 0.002 2.000
-0.007 0.001 2.000
0.149 0.000 2.000
0.000 0.002 2.019
0.000 0.034 1.928
0.011 0.000 2.017
-0.029 -0.000 2.000
0.001 -0.165 2.052
-0.099 0.006 2.067
0.175 0.000 2.000
0.180 0.000 1.999
-0.002 0.000 2.087
-0.014 0.068 2.000
-0.004 0.118 2.116
0.083 0.065 2.000
-0.074 0.000 2.003
0.007 0.021 1.586
0.066 -0.010 2.379
-0.004 0.000 2.192
-0.003 0.227 2.128
0.082 -0.006 2.162
-0.001 0.089 2.000
-0.002 0.097 2.305
0.000 0.191 2.189
-0.090 0.043 2.001
0.000 0.040 2.001
-0.030 0.002 2.000
0.122 -0.004 2.177
0.000 -0.105 2.200
0.115 -0.002 2.038
0.001 0.133 2.000
0.004 0.236 2.128
0.084 0.122 2.000
-0.004 0.000 2.220
0.000 0.040 2.186
0.006 0.041 2.000
-0.004 -0.024 2.245
0.012 -0.037 2.154
0.028 0.006 1.855
0.011 0.025 2.000
0.053 0.000 2.000
0.002 0.032 2.000
0.000 0.000 2.027
0.063 -0.053 2.010
0.009 0.039 2.000
0.000 -0.034 1.821
-0.104 -0.071 2.000
0.000 -0.167 1.991
-0.186 -0.005 1.772
0.000 -0.089 1.729
-0.007 -0.040 1.827
0.000 -0.165 1.758
-0.067 0.002 2.000
-0.063 0.000 2.317
-0.083 0.000 2.244
0.103 -0.057 2.004
-0.000 -0.135 1.853
-0.056 -0.046 2.000
0.011 0.000 1.832
-0.021 -0.123 1.999
-0.104 -0.010 1.999
0.000 0.000 1.946
-0.059 0.030 2.176
-0.069 0.015 2.000
0.000 0.024 1.799
0.002 0.000 1.806
-0.026 -0.003 1.866
-0.048 0.000 2.164
0.006 -0.039 2.101
-0.096 0.000 2.005
-0.001 -0.069 1.643
0.000 -0.083 1.995
0.010 -0.087 1.488
-0.096 0.000 2.000
-0.113 0.000 1.997
0.220 -0.002 1.871
0.000 0.000 1.827
-0.004 0.000 1.895
0.000 -0.226 1.868
-0.037 0.031 2.000
0.005 0.087 1.855
-0.037 0.025 2.004
-0.004 -0.287 1.914
-0.022 -0.063 2.000
0.030 -0.067 2.001
0.000 -0.034 2.000
0.000 -0.028 2.220
0.002 -0.123 1.905
0.000 -0.000 1.890
0.085 -0.024 2.000
-0.031 -0.000 2.420
-0.062 0.009 2.000
-0.058 0.004 1.916
-0.087 0.001 1.957
-0.065 0.000 1.955
0.000 0.000 1.919
-0.063 -0.010 2.000
0.001 0.000 2.000
0.001 0.000 1.993
-0.004 0.057 2.000
0.001 -0.002 1.881
0.019 0.000 1.997
0.000 0.015 1.919
0.141 0.000 2.000
-0.001 0.121 2.017
0.000 -0.002 2.020
0.024 0.000 1.619
0.000 0.024 1.929
-0.002 0.023 2.119
0.022 0.000 2.000
0.000 -0.005 2.000
0.000 0.000 2.000
-0.039 -0.001 2.000
0.117 0.038 2.000
0.000 0.038 2.000
0.041 -0.112 2.004
0.047 -0.002 1.936
0.067 0.000 1.999
-0.012 0.040 2.437
0.000 -0.002 1.899
0.071 0.000 2.000
0.000 0.006 2.071
0.000 0.001 1.678
-0.015 0.000 2.376
-0.002 0.000 1.951
0.002 0.000 1.959
0.000 0.079 2.035
0.090 -0.003 2.000
-0.028 0.000 2.000
0.106 -0.001 1.799
0.092 0.198 1.997
0.000 0.000 1.997
0.000 0.078 1.986
0.000 -0.053 2.175
-0.002 -0.027 2.188
0.106 0.000 1.999
0.000 -0.000 2.001
0.095 0.000 2.051
-0.003 0.112 2.127
0.000 0.037 2.000
0.006 0.000 2.000
-0.009 0.062 2.000
0.093 -0.012 2.000
0.144 0.000 1.928
0.068 0.142 2.004
0.012 0.187 2.137
0.010 0.000 2.140
0.000 0.037 2.072
-0.082 0.000 2.015
-0.112 -0.006 2.261
0.000 0.055 2.044
0.197 0.000 2.004
-0.082 -0.001 1.902
0.005 0.000 1.722
0.018 -0.007 1.798
-0.053 0.000 2.003
-0.140 0.000 2.000
0.197 -0.067 1.999
0.000 -0.077 1.931
-0.051 -0.012 2.003
0.004 -0.063 2.000
-0.255 0.000 1.820
-0.039 -0.063 2.000
-0.035 0.018 1.626
-0.039 0.000 2.000
0.020 0.000 1.997
0.005 -0.076 2.000
0.000 0.057 2.002
0.001 -0.002 1.879
0.029 0.000 2.000
-0.054 -0.001 2.118
0.004 0.061 1.912
-0.005 0.006 1.878
-0.006 0.146 2.001
-0.021 -0.000 2.000
0.171 0.000 2.080
0.000 0.001 2.025
0.079 -0.055 2.000
0.020 0.001 2.095
-0.136 -0.003 2.139
0.021 0.004 2.000
0.000 0.154 2.118
0.000 -0.070 1.983
-0.027 -0.002 2.189
0.039 0.132 2.001
0.004 0.109 2.000
-0.000 -0.008 2.138
0.003 0.012 2.000
0.002 -0.020 1.762
-0.070 0.004 1.807
0.000 -0.017 2.000
-0.022 0.003 2.000
-0.005 -0.018 1.835
0.000 -0.020 1.811
-0.000 0.209 1.962
0.000 0.001 2.001
-0.027 0.000 2.026
0.018 -0.000 2.028
0.024 0.000 2.055
-0.002 0.000 2.021
-0.000 0.003 2.000
0.000 0.079 1.885
0.007 0.000 2.000
0.081 0.000 2.000
-0.145 -0.052 2.000
-0.000 -0.045 2.271
0.001 -0.031 2.000
0.000 -0.031 2.000
0.008 0.000 2.000
0.060 0.000 2.000
0.055 0.000 2.000
0.000 -0.003 1.948
0.000 -0.158 2.001
0.019 0.000 2.000
-0.051 -0.003 2.003
0.000 -0.126 2.000
-0.143 0.000 2.076
0.000 0.002 1.988
0.000 0.032 1.815
-0.041 0.044 2.000
-0.035 0.000 2.000
0.000 -0.003 2.001
0.138 -0.002 1.890
-0.000 -0.025 1.963
-0.011 0.001 2.000
-0.016 0.000 2.000
0.000 0.159 1.832
0.000 -0.005 2.000
0.000 -0.001 2.037
0.000 0.000 1.985
-0.009 0.000 2.000
-0.000 0.000 2.000
0.000 0.004 2.032
-0.001 0.000 2.000
0.000 -0.147 2.000
-0.002 0.000 2.051
0.039 0.106 1.998
0.000 0.032 2.000
-0.001 0.078 2.052
0.000 0.120 2.000
-0.010 0.000 2.000
0.000 -0.002 2.000
0.001 -0.082 1.520
0.000 0.000 2.001
0.000 -0.016 2.000
0.000 0.000 1.958
-0.006 0.000 2.000
0.005 0.000 2.000
0.267 0.000 2.000
0.004 0.000 2.000
0.000 0.005 2.000
0.000 0.000 1.993
0.021 0.000 2.000
0.000 0.000 2.011
0.000 -0.002 2.000
0.000 0.000 1.981
0.045 0.000 2.000
0.003 0.000 2.000
0.014 -0.023 1.530
0.024 -0.092 2.000
0.011 0.083 1.637
0.007 0.067 1.630
-0.117 0.000 2.254
0.078 -0.098 2.002
-0.098 0.236 2.000
0.001 -0.080 2.001
-0.207 0.222 1.996
0.000 0.080 2.005
-0.008 -0.176 2.000
-0.077 0.001 1.733
0.183 0.000 2.001
-0.083 0.120 2.000
-0.183 -0.010 2.207
-0.086 0.015 1.731
-0.042 -0.002 1.813
-0.072 0.010 1.697
0.004 0.013 1.682
-0.155 0.010 1.703
0.000 -0.164 2.023
-0.064 0.000 2.034
-0.060 -0.084 2.000
-0.007 0.025 1.793
0.003 0.000 1.659
0.032 0.000 1.802
0.312 -0.122 1.995
0.127 -0.000 1.802
0.118 -0.167 1.998
-0.004 0.054 1.792
0.004 0.061 1.799
0.161 -0.099 2.000
0.000 -0.020 1.713
0.006 0.002 2.000
-0.004 0.016 1.824
0.001 -0.068 2.269
0.173 -0.074 1.999
0.004 -0.079 2.000
0.142 -0.006 1.805
-0.003 -0.030 1.792
-0.004 -0.062 1.855
-0.061 -0.117 2.002
-0.072 -0.012 2.000
0.000 -0.017 2.276
-0.068 0.022 2.202
-0.108 0.000 2.355
0.004 -0.069 2.000
-0.005 0.016 1.830
0.004 0.000 1.710
0.000 0.059 1.669
0.003 -0.057 2.009
-0.053 -0.127 1.999
-0.093 0.003 2.030
-0.000 0.059 1.813
-0.002 0.000 1.828
0.003 -0.072 2.099
-0.149 0.055 2.000
0.114 -0.004 2.000
-0.000 0.000 1.774
0.085 -0.054 2.010
0.000 0.034 1.822
-0.000 0.001 2.000
-0.059 0.012 2.001
0.030 -0.049 1.741
-0.118 -0.007 1.818
-0.024 -0.115 1.999
0.000 -0.075 1.842
-0.054 0.000 2.001
-0.098 -0.140 1.997
-0.101 -0.062 1.999
0.039 -0.004 1.872
-0.091 0.253 1.996
-0.026 -0.146 2.002
-0.149 0.021 1.789
0.023 0.033 1.773
0.113 0.000 1.742
-0.159 -0.060 1.998
0.026 -0.037 2.173
0.169 -0.002 1.845
0.000 0.052 2.003
-0.050 -0.041 2.002
0.000 -0.124 1.999
0.022 -0.057 2.237
0.116 -0.003 1.877
-0.074 0.090 2.007
-0.052 0.293 2.001
-0.057 0.296 1.997
-0.151 0.000 2.000
-0.141 -0.000 1.847
-0.115 0.253 1.992
-0.003 -0.086 1.889
-0.063 0.000 1.997
0.005 0.065 1.820
0.000 -0.094 2.215
-0.038 0.008 1.853
-0.002 -0.047 2.116
-0.080 -0.001 1.895
0.017 0.016 1.799
0.041 0.000 1.881
-0.093 0.000 2.174
-0.048 -0.009 2.299
0.104 -0.122 2.000
-0.074 -0.007 1.999
0.108 -0.001 1.879
-0.077 -0.001 1.906
0.123 -0.023 2.003
0.005 0.059 1.829
0.081 0.002 1.805
0.017 -0.014 1.877
-0.025 0.077 2.008
-0.065 -0.075 2.000
-0.002 -0.079 2.000
0.062 0.003 1.888
-0.000 -0.077 2.000
0.008 -0.081 1.872
0.019 -0.031 1.804
-0.001 -0.077 2.146
0.003 0.198 2.000
-0.032 -0.000 1.921
0.005 0.008 1.877
0.316 -0.001 1.877
-0.111 0.323 2.000
-0.001 -0.070 2.105
0.032 -0.037 2.000
-0.107 -0.026 1.999
0.021 -0.040 1.865
0.001 0.089 1.855
0.088 0.023 1.833
0.000 -0.142 2.000
0.006 0.000 2.270
0.000 -0.021 2.002
0.264 -0.003 1.841
0.001 -0.022 1.897
0.001 -0.035 2.068
-0.001 -0.147 1.936
-0.028 0.000 2.024
-0.038 0.023 2.000
-0.037 0.323 2.000
-0.023 -0.000 1.932
-0.086 0.336 2.000
-0.028 0.000 1.999
-0.025 0.028 2.001
0.000 0.102 2.001
0.234 -0.000 1.923
0.006 0.038 1.901
-0.037 0.000 1.787
-0.044 -0.027 1.999
-0.012 0.005 2.055
-0.019 0.000 1.929
0.074 -0.000 1.926
-0.039 -0.005 2.000
0.008 -0.041 2.060
-0.022 0.014 2.000
-0.024 0.021 2.001
-0.033 0.001 1.681
0.001 -0.038 1.999
0.010 0.071 1.936
0.087 -0.019 2.000
-0.014 -0.031 2.000
-0.025 0.087 2.001
-0.013 0.021 1.782
0.000 0.000 1.937
0.013 -0.023 2.000
-0.069 -0.020 2.000
-0.045 -0.002 2.337
-0.132 0.000 1.947
-0.000 -0.016 1.899
0.061 -0.003 2.000
-0.209 -0.018 2.000
-0.012 0.002 2.000
-0.000 -0.014 2.039
-0.015 -0.000 2.062
0.222 -0.001 1.959
0.000 0.001 1.971
0.163 -0.000 1.961
-0.001 -0.019 2.000
0.012 -0.014 2.000
-0.010 0.041 2.000
0.000 -0.001 1.961
0.012 0.045 2.001
-0.008 -0.014 2.000
-0.001 0.126 1.970
-0.011 -0.001 2.285
0.002 0.012 1.999
0.065 -0.007 2.000
0.005 0.000 2.326
0.006 0.000 2.009
0.000 -0.000 1.999
-0.000 0.001 1.826
-0.000 0.008 2.000
0.000 0.004 2.003
-0.065 0.004 2.000
0.000 0.014 1.907
0.004 -0.004 2.349
0.002 0.020 1.849
0.245 0.008 1.999
0.012 0.011 1.890
0.012 -0.001 2.332
0.187 -0.001 2.012
0.025 0.014 2.000
0.001 -0.021 2.030
0.000 0.019 1.999
-0.009 -0.002 2.056
-0.000 -0.000 2.034
0.015 0.017 2.000
0.017 -0.000 2.047
0.037 0.007 1.863
0.016 0.003 2.017
0.213 -0.002 2.045
-0.000 0.025 1.983
-0.002 0.019 2.383
-0.011 0.002 2.023
0.025 -0.005 2.394
-0.044 0.037 2.001
0.016 0.027 1.821
0.033 0.225 1.999
-0.006 0.207 2.051
-0.012 0.003 2.024
0.086 0.000 2.022
-0.001 -0.071 2.065
0.044 0.021 1.999
-0.001 0.031 2.197
-0.001 0.125 2.080
0.001 -0.028 2.082
0.050 -0.001 1.903
0.046 0.016 2.000
0.201 -0.001 2.065
0.018 0.053 2.000
0.274 0.048 2.000
0.042 -0.018 2.002
-0.000 -0.021 2.000
-0.002 0.051 2.087
0.006 0.043 2.011
-0.002 0.194 2.086
0.021 0.016 1.855
0.046 0.000 2.000
-0.002 0.084 1.860
0.066 0.070 1.999
-0.001 0.095 2.111
0.084 0.000 1.999
-0.008 0.008 2.000
0.118 -0.003 2.136
-0.005 0.000 2.150
-0.002 0.081 2.340
0.231 -0.006 2.138
-0.005 0.065 2.151
0.231 -0.006 2.153
0.095 -0.031 2.575
0.005 0.074 1.911
-0.001 0.103 2.022
-0.012 -0.005 2.157
0.000 0.083 2.000
0.088 -0.069 2.002
-0.002 0.094 2.113
0.000 0.077 2.165
-0.002 0.074 2.179
0.056 -0.002 2.206
-0.003 0.128 2.095
0.072 0.112 1.997
0.216 0.098 1.997
0.103 -0.013 2.409
0.116 0.008 1.692
-0.232 0.115 1.997
-0.001 0.122 1.991
0.103 0.000 1.988
-0.005 0.112 2.125
-0.002 0.104 2.074
0.000 -0.005 2.000
-0.014 0.003 2.000
0.027 0.023 1.643
0.115 0.156 1.998
0.149 -0.014 2.235
0.137 0.239 1.997
0.082 0.003 2.000
-0.021 0.124 1.998
0.136 0.077 1.999
0.247 0.144 1.996
0.123 0.235 1.996
0.143 -0.011 2.253
0.051 0.000 2.161
0.139 0.000 2.000
0.115 -0.154 2.000
0.145 -0.003 2.277
0.157 0.265 1.993
0.028 0.133 2.274
0.159 0.129 1.997
0.000 0.143 2.360
-0.013 0.055 2.270
0.000 0.206 2.270
0.165 -0.004 2.505
-0.004 0.149 2.350
0.158 -0.118 2.000
0.000 0.002 2.245
0.001 -0.009 2.257
-0.010 0.071 2.270
0.072 0.170 1.999
-0.082 -0.010 2.253
0.189 -0.005 2.602
0.071 0.244 2.000
-0.012 0.145 1.744
0.002 0.016 2.000
0.017 0.220 2.181
0.033 0.189 2.329
-0.003 0.011 2.338
0.180 -0.004 2.109
0.034 0.209 2.003
0.214 0.033 2.003
-0.003 0.004 2.325
0.012 0.054 2.061
0.022 0.040 2.173
0.055 -0.055 2.003
-0.079 -0.000 1.964
-0.214 0.000 2.329
0.045 -0.123 2.002
-0.220 0.072 2.003
-0.060 0.017 1.714
-0.006 0.148 1.793
-0.069 0.000 2.003
-0.074 0.010 2.165
-0.150 0.000 1.999
-0.001 -0.135 1.827
-0.063 -0.065 2.002
0.003 -0.046 1.747
-0.072 0.004 1.966
0.000 -0.147 1.956
-0.045 -0.001 1.887
-0.135 -0.020 1.999
0.001 0.110 1.730
0.000 -0.145 2.528
0.000 0.141 2.000
-0.055 0.032 2.000
0.000 -0.068 1.803
-0.001 -0.116 1.883
0.066 0.006 1.871
0.001 0.019 1.892
0.000 0.063 1.901
0.000 -0.028 1.999
-0.025 0.001 2.056
0.000 -0.000 1.945
-0.001 0.000 2.002
0.005 0.002 2.000
0.009 -0.000 1.962
-0.010 -0.000 1.699
-0.085 0.001 2.002
-0.043 0.007 1.984
0.000 0.149 1.968
0.079 0.017 1.999
0.000 -0.001 1.952
0.009 0.004 1.941
0.184 -0.000 1.985
0.143 0.000 2.000
0.000 0.234 2.009
0.000 0.228 2.018
-0.021 0.003 2.034
0.000 0.003 1.946
-0.005 0.315 2.070
0.049 0.193 1.998
0.000 0.150 2.000
0.092 0.003 2.096
-0.042 0.000 2.000
0.228 -0.005 2.151
0.018 0.189 2.001
-0.002 0.093 2.099
0.083 -0.001 1.788
0.115 -0.072 1.999
0.090 -0.001 2.078
0.083 0.000 2.256
0.110 -0.011 2.212
0.029 0.006 2.090
0.000 0.000 2.000
-0.012 0.003 2.252
-0.058 -0.004 2.260
0.135 0.000 2.000
0.141 -0.102 1.998
0.059 0.000 2.000
0.000 -0.010 2.090
-0.011 0.013 2.259
-0.015 -0.003 2.280
-0.010 0.266 2.346
0.042 0.162 2.003
0.150 -0.170 1.997
0.057 -0.009 2.004
0.076 0.007 1.618
-0.015 0.000 1.694
0.000 0.006 2.374
0.006 0.062 1.656
0.158 -0.079 2.000
0.208 0.000 1.995
-0.207 0.216 1.996
-0.099 0.004 2.076
0.078 0.007 1.662
-0.194 -0.000 1.754
-0.136 0.000 1.705
0.016 -0.062 2.002
-0.060 0.002 2.113
0.000 -0.001 1.827
0.003 0.027 1.741
-0.046 -0.001 1.890
0.000 0.000 1.883
0.007 -0.063 2.169
0.005 -0.139 2.276
-0.118 0.000 1.872
-0.045 0.013 1.887
-0.022 0.000 2.003
0.000 -0.014 1.891
-0.089 0.056 1.999
-0.003 0.075 1.890
0.004 -0.017 1.816
-0.076 0.005 2.001
-0.052 0.025 2.000
0.000 0.000 2.000
-0.091 0.000 1.903
-0.050 -0.063 1.999
0.000 -0.017 2.214
0.265 -0.053 1.999
0.000 0.112 1.922
0.057 -0.037 2.000
0.149 -0.060 2.000
0.000 -0.057 2.001
-0.001 0.198 1.935
0.217 -0.014 2.000
0.013 -0.040 1.975
-0.085 0.006 1.970
-0.013 0.156 2.000
-0.046 -0.007 2.005
-0.009 0.001 2.000
0.005 -0.085 1.988
-0.004 0.090 2.000
0.001 -0.000 2.000
0.003 -0.025 2.000
0.017 -0.007 2.416
0.035 -0.000 2.000
0.008 0.045 2.032
0.192 0.055 1.999
-0.006 0.240 2.096
-0.001 -0.001 2.107
0.148 -0.002 2.064
0.033 -0.005 2.117
0.058 -0.005 2.147
0.078 -0.096 2.003
-0.003 0.073 2.145
-0.002 0.092 2.367
0.077 -0.002 2.126
0.025 -0.009 2.427
-0.005 -0.196 2.173
0.015 0.031 1.722
0.050 0.117 1.998
0.177 0.000 1.999
-0.005 0.000 2.182
0.116 0.257 1.998
-0.003 0.113 2.119
0.106 0.001 2.000
0.157 -0.001 2.168
-0.007 0.021 2.101
0.000 0.211 1.994
0.123 -0.194 1.995
-0.040 -0.002 2.219
0.125 -0.085 1.997
-0.005 0.139 1.859
0.002 0.000 1.907
0.054 0.040 2.003
0.020 0.123 1.659
-0.004 0.153 1.889
0.000 -0.008 2.153
-0.002 0.156 1.952
-0.004 -0.192 2.263
-0.011 0.166 1.788
-0.042 0.047 2.001
0.064 0.112 2.000
-0.004 0.191 1.833
-0.124 -0.000 1.874
-0.031 -0.082 2.003
-0.036 -0.016 2.004
0.184 -0.000 1.804
-0.021 0.006 1.931
0.003 0.000 1.891
-0.017 0.004 1.916
-0.027 0.003 1.938
-0.055 0.000 1.945
0.000 -0.024 2.149
0.072 -0.020 2.004
-0.026 0.001 1.939
-0.000 -0.016 2.000
-0.018 0.072 2.002
0.000 0.228 1.996
0.026 0.006 2.066
-0.007 0.179 2.135
0.002 0.033 2.067
0.005 0.157 2.110
0.035 0.002 2.000
0.112 -0.149 2.000
0.000 0.107 1.707
-0.100 0.033 2.004
-0.001 0.002 1.876
0.034 0.000 1.813
-0.031 -0.061 2.002
0.068 0.000 1.839
0.176 -0.090 1.999
-0.002 0.223 1.896
-0.000 -0.031 2.099
0.005 -0.015 1.996
0.000 -0.030 1.986
0.000 0.107 2.002
0.191 0.006 2.001
-0.161 -0.004 2.098
0.019 -0.139 2.000
0.014 0.005 2.313
0.000 0.139 2.038
-0.100 -0.000 1.778
-0.001 -0.043 1.865
0.033 -0.105 1.999
0.000 0.001 1.864
0.067 0.002 2.100
0.009 -0.053 2.000
-0.002 -0.247 1.646
0.000 -0.065 2.039
-0.108 0.005 2.247
-0.038 -0.022 2.000
-0.000 -0.143 1.979
-0.058 0.118 2.002
-0.050 0.011 2.001
0.009 -0.051 1.694
0.007 -0.025 2.258
0.003 -0.000 1.725
-0.022 0.005 2.033
-0.018 0.000 1.970
-0.076 0.007 1.925
-0.001 -0.000 2.136
-0.029 -0.001 1.881
0.000 -0.003 2.019
0.000 -0.013 1.998
-0.002 0.041 2.033
0.118 0.049 1.997
0.045 0.113 2.000
0.000 0.203 2.283
-0.008 0.149 2.339
-0.020 0.156 2.394
-0.008 0.000 2.268
-0.021 0.190 2.410
-0.010 -0.093 2.341
-0.036 0.004 1.843
0.001 0.000 1.914
-0.035 0.000 1.869
0.000 -0.016 2.000
-0.003 0.219 2.091
0.037 -0.002 2.000
0.060 0.117 2.000
0.080 -0.010 2.252
0.252 -0.014 2.308
0.000 0.183 1.999
0.070 0.214 1.997
0.199 -0.006 2.413
0.183 -0.058 2.003
-0.007 -0.085 1.779
-0.023 -0.001 1.972
0.035 0.000 1.999
0.000 0.046 2.000
-0.002 -0.055 2.088
0.032 -0.002 2.126
0.116 0.027 2.000
0.014 0.042 2.112
0.000 0.022 2.066
0.120 -0.040 1.999
0.026 0.046 2.287
-0.004 0.042 2.317
-0.090 -0.011 1.778
-0.077 0.002 1.898
0.000 0.023 2.001
0.000 -0.001 1.764
-0.041 -0.006 2.002
0.055 0.024 2.086
-0.001 -0.033 1.942
-0.167 -0.100 1.998
-0.200 -0.257 1.993
-0.159 -0.011 1.690
-0.060 -0.247 1.997
-0.172 0.000 1.580
-0.235 -0.002 1.726
-0.011 -0.163 1.709
0.000 -0.107 1.585
-0.026 -0.009 1.688
-0.003 -0.229 1.575
0.014 -0.115 1.795
-0.203 -0.001 1.606
-0.282 -0.006 1.546
-0.086 -0.099 1.999
-0.090 -0.194 2.001
-0.003 -0.051 1.724
-0.154 -0.012 1.717
-0.002 -0.239 1.600
-0.215 -0.229 1.991
-0.111 -0.013 1.720
-0.004 -0.077 1.737
-0.069 0.022 1.594
0.079 0.013 1.599
-0.077 -0.009 1.729
-0.093 0.041 2.220
-0.098 0.013 2.319
-0.231 0.084 2.002
0.084 -0.141 2.007
-0.100 -0.244 1.995
-0.237 -0.003 2.395
-0.130 -0.237 1.996
-0.096 -0.089 2.006
0.145 -0.217 1.994
0.236 0.004 1.629
-0.102 -0.019 2.495
0.020 -0.086 1.604
-0.091 0.201 2.005
-0.009 0.179 1.751
-0.197 -0.080 1.999
-0.203 -0.004 1.683
-0.198 0.013 1.651
0.012 -0.205 2.211
-0.077 -0.011 1.741
0.077 0.011 1.622
0.083 -0.086 2.005
0.005 0.001 1.674
0.078 0.013 1.636
0.012 0.074 1.663
-0.006 0.144 1.765
0.015 -0.079 2.411
-0.181 0.057 2.002
0.021 -0.092 2.201
0.079 -0.121 2.005
-0.176 -0.069 2.005
-0.180 0.004 2.053
-0.075 0.015 2.182
-0.073 0.007 2.337
0.208 -0.006 1.779
-0.070 0.016 1.697
-0.181 -0.006 2.376
-0.000 -0.112 1.955
-0.005 0.238 1.785
-0.085 -0.155 2.000
-0.161 0.021 1.592
-0.162 -0.004 1.531
0.085 -0.170 2.005
-0.083 -0.152 1.998
-0.076 0.002 2.399
-0.005 0.109 1.800
-0.015 -0.166 2.380
0.099 0.035 1.687
0.061 -0.149 1.999
-0.138 -0.001 1.662
0.001 -0.158 2.093
0.026 -0.155 2.000
0.096 -0.091 2.005
0.027 -0.095 2.307
-0.228 -0.067 1.997
0.006 -0.152 1.998
-0.005 0.006 1.805
0.010 -0.077 2.001
0.248 -0.162 1.998
-0.102 0.119 2.009
0.005 -0.071 1.521
-0.007 -0.057 1.760
0.004 -0.006 1.728
-0.107 -0.146 1.998
-0.094 0.000 2.127
-0.151 -0.001 2.233
-0.064 0.020 2.001
0.024 -0.060 2.002
-0.077 -0.234 1.995
-0.053 0.010 1.655
0.007 -0.073 2.095
-0.204 -0.001 1.765
0.028 0.002 1.751
-0.154 0.068 1.998
-0.065 0.019 2.002
-0.000 -0.145 2.459
0.048 -0.003 1.806
0.002 -0.140 2.027
-0.086 0.011 2.170
0.009 0.089 1.733
-0.150 -0.014 2.456
-0.002 0.232 1.813
-0.085 0.004 1.717
-0.078 -0.005 1.858
-0.066 -0.020 2.442
0.000 -0.142 2.327
-0.055 0.016 2.001
-0.000 -0.146 1.779
0.038 -0.136 1.999
0.210 -0.136 1.999
-0.118 0.000 1.769
-0.064 0.000 2.081
0.060 -0.085 2.003
-0.004 -0.128 1.827
0.039 -0.002 1.838
-0.127 -0.001 2.079
0.099 0.031 1.741
0.008 -0.059 2.002
-0.069 0.005 2.097
-0.029 -0.003 1.854
0.019 -0.049 2.187
-0.003 -0.073 1.888
-0.116 0.008 1.999
0.019 0.000 1.854
-0.108 -0.001 1.763
-0.071 -0.136 1.998
0.005 -0.042 1.782
-0.001 -0.125 2.274
-0.063 0.111 2.004
0.105 0.008 1.854
-0.045 -0.000 1.809
0.016 -0.048 2.193
-0.040 0.094 2.009
-0.108 -0.000 1.812
0.012 -0.108 1.757
-0.098 -0.005 1.999
-0.003 -0.066 1.867
-0.119 -0.002 1.868
0.007 0.160 1.790
0.026 -0.049 2.344
-0.103 0.016 1.720
-0.102 -0.016 1.999
-0.099 -0.001 2.200
-0.048 0.072 2.004
-0.054 0.130 2.004
-0.051 -0.006 2.218
0.066 -0.037 2.003
0.013 -0.050 1.759
-0.107 -0.002 1.777
-0.061 -0.015 2.000
0.002 0.055 1.818
-0.067 0.076 2.002
0.165 -0.046 2.002
-0.064 -0.093 1.999
0.001 -0.072 1.833
-0.063 0.042 2.001
-0.044 0.001 2.010
0.135 0.008 1.825
-0.042 0.015 2.325
0.074 0.005 1.826
0.017 -0.051 2.368
0.011 -0.001 1.883
-0.058 0.010 2.222
-0.039 -0.003 1.860
-0.001 0.085 1.885
-0.001 -0.045 2.073
-0.001 0.016 1.885
-0.023 -0.001 1.903
-0.000 0.044 1.894
-0.051 -0.002 2.122
-0.044 0.009 2.227
-0.035 0.006 2.508
-0.009 0.007 1.904
0.009 -0.050 1.867
-0.076 -0.001 1.850
-0.069 0.030 2.000
-0.000 -0.109 1.875
0.086 0.005 1.861
-0.001 -0.063 1.811
0.014 -0.028 2.236
-0.002 -0.034 1.916
0.156 -0.002 1.869
-0.041 0.014 1.797
0.001 0.076 1.906
0.234 -0.069 1.999
0.213 -0.001 1.912
0.005 -0.023 2.310
0.014 -0.061 1.799
-0.091 -0.000 1.890
-0.061 0.011 2.000
0.010 -0.032 1.864
-0.063 0.177 2.000
-0.023 0.004 2.043
0.091 0.005 1.888
0.188 -0.000 1.891
-0.008 -0.055 2.001
0.017 -0.018 2.002
-0.014 -0.031 2.408
0.002 0.083 1.923
0.090 -0.026 2.002
-0.015 0.000 1.929
0.169 -0.052 1.997
0.081 0.002 1.907
0.005 -0.051 2.098
0.003 0.086 1.899
-0.019 0.006 1.918
0.024 0.001 1.917
0.037 -0.031 2.002
-0.025 0.195 1.997
0.214 0.009 1.899
-0.040 -0.005 2.000
-0.047 0.001 2.402
0.012 -0.038 2.000
0.181 -0.012 2.002
-0.026 -0.002 1.852
-0.028 -0.035 2.000
-0.018 0.004 2.205
0.074 0.001 1.930
-0.021 -0.011 2.358
-0.146 -0.000 1.947
0.088 0.006 1.928
0.002 0.103 1.945
0.002 -0.035 1.938
0.000 -0.015 2.056
0.144 -0.027 2.000
-0.004 0.207 1.943
0.000 0.003 1.901
0.013 -0.025 2.001
-0.028 0.005 2.349
-0.004 -0.000 1.963
0.179 0.000 1.957
-0.014 0.000 2.029
-0.018 0.069 2.001
-0.015 -0.124 2.000
-0.017 0.057 2.000
-0.004 0.004 2.339
0.003 -0.001 1.970
0.101 0.001 1.956
-0.018 0.129 2.007
-0.130 -0.013 2.000
-0.014 0.000 2.001
0.005 -0.011 2.168
-0.000 -0.013 1.983
-0.000 0.075 2.006
-0.003 0.003 1.980
-0.004 -0.004 1.851
-0.004 -0.016 2.000
-0.001 0.200 1.995
0.194 -0.006 1.997
-0.007 0.001 2.334
-0.162 -0.002 2.008
0.004 -0.001 2.000
0.140 -0.002 1.997
-0.031 0.001 2.016
0.001 0.013 2.357
-0.000 0.013 2.000
0.191 -0.002 2.023
-0.032 -0.000 2.030
0.000 -0.010 2.000
0.021 0.006 1.885
0.169 0.021 2.000
0.002 0.018 1.874
-0.005 0.003 2.011
-0.002 0.199 2.046
0.299 0.029 1.997
0.037 0.001 2.483
0.001 0.046 1.887
0.001 0.038 1.976
0.108 -0.002 2.057
-0.015 0.048 2.428
-0.001 -0.004 2.089
0.163 0.059 1.999
-0.003 0.051 2.222
0.066 0.170 1.999
0.064 -0.035 1.999
0.069 0.002 2.052
0.086 0.064 1.999
-0.001 0.020 2.106
0.054 0.056 1.999
0.039 -0.002 2.115
0.001 0.058 1.900
0.193 0.017 1.999
0.067 -0.003 2.164
0.066 0.005 1.992
0.078 -0.002 1.858
0.008 0.069 1.728
-0.007 0.110 2.293
-0.030 0.085 2.001
-0.006 0.061 2.145
-0.003 -0.001 2.147
0.101 0.204 1.999
-0.068 0.101 1.998
0.105 0.200 1.997
0.103 -0.057 1.998
0.026 -0.002 2.162
0.168 -0.007 2.166
-0.002 0.096 2.327
0.111 -0.006 2.186
0.111 0.075 2.003
0.117 0.142 1.998
0.108 0.193 1.995
0.117 -0.008 2.438
0.010 0.030 1.939
-0.001 0.118 1.760
0.117 0.047 1.997
-0.013 0.106 2.391
0.110 -0.119 1.998
-0.007 0.192 2.212
-0.005 0.204 2.227
0.020 0.116 2.292
-0.090 0.118 2.004
0.142 0.000 1.997
0.136 0.180 1.998
0.057 0.039 2.003
0.117 -0.047 2.006
-0.011 0.052 2.232
-0.007 0.206 2.256
0.152 -0.002 2.112
-0.091 -0.013 2.265
-0.018 0.165 2.405
0.138 0.004 2.246
-0.150 -0.008 2.270
0.144 -0.005 1.944
0.020 0.133 2.000
-0.002 0.159 2.402
0.147 -0.082 1.998
0.174 -0.008 1.865
0.048 0.189 2.004
0.048 0.013 2.303
0.153 0.033 2.255
-0.121 0.149 1.998
0.053 0.041 2.005
-0.018 -0.004 2.304
-0.079 -0.005 2.326
-0.021 0.265 2.339
0.161 -0.011 1.816
0.026 0.194 1.585
0.025 0.167 2.263
-0.149 0.029 1.625
-0.000 -0.136 1.590
-0.000 -0.200 1.996
-0.217 -0.004 1.710
-0.097 -0.012 1.743
-0.002 -0.102 2.346
-0.212 -0.001 2.253
0.002 0.005 1.687
-0.005 0.244 1.766
-0.195 -0.010 2.352
0.196 0.029 1.641
-0.065 -0.011 1.774
0.221 -0.004 1.782
-0.069 0.017 1.709
0.028 -0.074 1.602
-0.000 -0.079 2.111
-0.061 0.017 1.819
0.063 0.025 1.695
0.000 -0.154 2.026
0.048 -0.003 1.821
0.005 -0.093 2.085
0.150 -0.063 2.002
-0.000 0.269 1.747
-0.055 0.009 2.219
-0.009 -0.151 2.264
0.112 0.003 1.841
0.111 0.002 1.849
0.045 0.002 1.798
0.293 -0.053 1.994
0.007 0.108 1.804
0.143 -0.098 2.000
0.017 -0.032 2.200
-0.054 -0.001 1.902
0.001 0.047 1.887
0.077 -0.002 1.883
0.014 0.160 1.843
0.095 -0.049 2.001
-0.014 -0.033 2.004
-0.020 -0.024 2.003
-0.032 0.001 1.881
0.217 0.001 1.920
-0.064 -0.009 2.288
-0.001 -0.025 1.891
-0.060 0.103 2.000
-0.011 -0.053 2.346
-0.039 -0.020 2.000
-0.000 -0.099 1.924
-0.003 0.216 1.921
-0.029 -0.009 1.839
0.173 0.000 1.945
0.000 0.236 1.947
-0.015 0.021 2.000
-0.002 -0.012 2.344
0.080 -0.015 2.004
-0.008 0.002 2.400
-0.007 0.001 2.005
0.176 -0.000 2.002
-0.000 -0.048 1.992
-0.005 0.000 1.984
0.209 0.000 1.993
-0.041 -0.000 2.001
-0.001 -0.037 2.030
0.001 -0.018 2.021
0.087 0.006 2.021
0.027 0.029 2.000
-0.049 -0.000 2.001
0.004 0.078 2.018
0.285 -0.006 2.062
-0.003 0.301 2.061
0.009 0.004 1.687
0.056 -0.007 2.361
0.002 0.049 1.987
0.063 -0.005 2.258
0.012 0.012 1.735
0.038 0.068 1.999
-0.114 0.073 1.999
0.019 0.070 1.999
0.003 -0.093 2.075
0.072 -0.088 1.998
0.075 0.002 2.139
0.091 -0.001 2.515
0.096 -0.116 1.999
0.113 0.038 2.000
0.106 -0.009 2.249
0.114 0.003 2.072
0.110 -0.041 2.001
-0.002 0.125 2.001
-0.000 0.038 2.002
0.033 0.109 1.997
-0.004 -0.085 2.222
-0.005 0.077 2.218
-0.067 -0.004 2.213
0.010 0.029 1.855
-0.025 0.019 2.135
0.141 0.000 2.038
0.082 0.162 2.003
-0.173 0.174 1.992
0.051 0.225 2.004
0.053 0.029 1.626
0.186 -0.044 1.999
-0.005 0.201 2.348
-0.095 0.014 1.761
-0.237 0.177 1.994
-0.100 -0.009 1.801
-0.002 -0.209 1.666
-0.075 -0.210 1.996
-0.207 0.203 1.997
-0.061 -0.000 1.766
-0.198 0.091 2.003
0.026 -0.187 1.998
0.087 -0.108 2.004
-0.109 0.008 2.123
-0.002 0.008 1.789
0.011 0.232 1.678
0.094 -0.100 2.004
-0.066 0.019 1.739
0.000 -0.151 2.047
0.000 -0.154 2.442
-0.000 -0.194 1.760
0.001 -0.030 1.762
-0.129 -0.066 1.997
0.008 -0.139 2.169
-0.055 0.000 2.003
-0.053 -0.001 1.966
-0.043 -0.028 2.003
0.000 0.050 1.855
-0.108 -0.003 2.167
0.266 -0.001 1.877
-0.134 -0.037 2.002
-0.002 -0.042 1.894
-0.047 0.000 1.836
-0.036 0.006 1.961
-0.115 -0.079 1.999
-0.118 -0.072 1.999
-0.042 0.005 2.228
-0.049 0.022 2.256
0.002 0.076 1.877
-0.029 -0.058 2.002
0.168 -0.076 2.000
0.004 -0.036 2.271
-0.032 0.093 2.002
-0.019 0.007 2.226
-0.046 -0.000 1.848
0.006 0.081 1.937
-0.000 -0.031 1.943
-0.031 -0.088 2.000
-0.008 0.014 2.002
-0.056 -0.000 1.959
-0.016 -0.000 2.097
0.167 -0.013 1.996
-0.009 -0.013 2.341
-0.002 0.004 1.795
-0.009 0.002 1.974
-0.001 0.202 2.000
0.001 -0.004 1.931
-0.105 -0.005 1.998
0.005 -0.024 2.000
-0.004 0.000 2.335
-0.002 0.198 2.001
0.002 -0.015 2.015
0.020 -0.001 2.104
0.263 0.001 2.038
0.164 -0.002 2.057
0.047 0.086 2.002
0.061 0.047 1.999
0.014 -0.094 2.000
0.016 -0.007 2.000
-0.095 -0.003 2.121
0.160 0.022 2.000
0.018 0.168 1.999
0.088 0.066 1.999
0.078 -0.006 2.191
0.023 0.001 2.160
-0.005 0.175 2.151
0.095 -0.001 2.336
-0.050 0.022 2.003
-0.001 0.086 2.030
-0.005 0.001 2.169
-0.001 -0.020 2.106
0.006 0.126 1.871
-0.007 -0.004 2.192
0.126 -0.103 1.999
0.107 -0.010 2.353
0.112 0.087 2.003
-0.052 0.010 2.220
-0.004 0.129 1.867
-0.003 0.129 1.859
-0.006 -0.184 2.227
0.063 -0.010 2.241
0.041 0.034 2.008
-0.012 -0.001 2.250
0.041 0.006 1.639
0.168 0.203 1.999
-0.034 0.018 2.135
0.138 -0.009 1.830
-0.075 -0.014 2.271
0.172 -0.006 1.910
-0.002 0.053 2.438
0.005 0.178 1.990
-0.104 -0.003 1.753
0.021 0.173 1.603
-0.206 -0.201 1.996
0.006 0.080 1.655
0.003 -0.107 2.033
0.030 0.003 1.702
-0.054 -0.148 2.005
-0.160 -0.008 2.375
-0.002 0.242 1.814
-0.069 0.007 2.243
0.028 -0.064 2.001
0.094 0.006 1.784
-0.000 -0.132 1.876
0.001 0.177 1.870
-0.028 -0.090 2.005
-0.049 0.001 2.081
0.176 -0.000 1.831
-0.097 -0.004 2.429
0.176 -0.039 2.000
0.105 -0.072 1.999
0.001 -0.033 1.883
-0.021 0.000 1.853
-0.023 0.010 1.737
-0.022 -0.000 1.949
-0.017 -0.014 2.000
0.009 -0.016 1.771
0.186 -0.016 2.000
