111.000 136.000 136.000
63.000 58.000 60.000
156.000 151.000 150.000
186.000 195.000 193.000
99.000 57.000 51.000
123.000 124.000 122.000
89.000 85.000 83.000
165.000 170.000 170.000
61.000 64.000 71.000
133.000 140.000 141.000
82.000 81.000 81.000
149.000 153.000 156.000
115.000 109.000 106.000
72.000 65.000 67.000
148.000 144.000 147.000
73.000 75.000 75.000
175.000 179.000 181.000
75.000 73.000 75.000
66.000 64.000 68.000
78.000 70.000 78.000
145.000 143.000 141.000
140.000 143.000 144.000
126.000 136.000 141.000
57.000 66.000 67.000
117.000 129.000 133.000
77.000 77.000 78.000
74.000 71.000 74.000
175.000 172.000 170.000
173.000 177.000 181.000
156.000 145.000 143.000
126.000 126.000 129.000
96.000 95.000 96.000
184.000 185.000 185.000
109.000 134.000 134.000
43.000 44.000 46.000
140.000 141.000 141.000
66.000 67.000 73.000
78.000 71.000 68.000
46.000 48.000 49.000
50.000 49.000 50.000
75.000 72.000 71.000
181.000 192.000 191.000
119.000 120.000 121.000
51.000 58.000 58.000
223.000 220.000 221.000
113.000 118.000 118.000
85.000 86.000 86.000
136.000 134.000 131.000
186.000 193.000 194.000
187.000 199.000 195.000
56.000 60.000 62.000
137.000 139.000 136.000
92.000 84.000 81.000
195.000 191.000 192.000
113.000 108.000 108.000
120.000 121.000 121.000
210.000 205.000 203.000
162.000 175.000 180.000
160.000 171.000 170.000
173.000 185.000 183.000
221.000 218.000 212.000
155.000 180.000 175.000
130.000 136.000 136.000
125.000 126.000 128.000
77.000 80.000 82.000
194.000 192.000 191.000
24.000 26.000 26.000
109.000 110.000 113.000
137.000 134.000 133.000
80.000 77.000 75.000
117.000 118.000 118.000
106.000 79.000 72.000
113.000 104.000 103.000
91.000 86.000 87.000
124.000 134.000 137.000
155.000 155.000 155.000
68.000 80.000 88.000
46.000 47.000 49.000
149.000 147.000 149.000
193.000 190.000 188.000
83.000 101.000 106.000
107.000 100.000 100.000
80.000 71.000 70.000
190.000 200.000 199.000
91.000 100.000 108.000
46.000 52.000 60.000
174.000 174.000 176.000
98.000 110.000 108.000
124.000 126.000 130.000
111.000 116.000 118.000
166.000 167.000 168.000
192.000 195.000 195.000
131.000 118.000 117.000
71.000 75.000 75.000
203.000 202.000 203.000
58.000 57.000 60.000
173.000 180.000 179.000
103.000 68.000 58.000
113.000 98.000 98.000
87.000 89.000 88.000
199.000 205.000 208.000
76.000 88.000 88.000
79.000 76.000 80.000
130.000 137.000 136.000
184.000 175.000 173.000
62.000 68.000 77.000
166.000 173.000 179.000
188.000 195.000 193.000
52.000 53.000 53.000
57.000 47.000 43.000
80.000 76.000 79.000
118.000 106.000 103.000
137.000 142.000 143.000
138.000 143.000 145.000
143.000 141.000 141.000
63.000 61.000 61.000
142.000 146.000 151.000
60.000 62.000 64.000
75.000 83.000 84.000
157.000 154.000 154.000
113.000 121.000 123.000
176.000 183.000 184.000
135.000 119.000 116.000
149.000 145.000 147.000
170.000 175.000 172.000
106.000 104.000 106.000
44.000 42.000 42.000
114.000 119.000 119.000
94.000 97.000 109.000
35.000 37.000 37.000
130.000 127.000 128.000
96.000 101.000 103.000
132.000 126.000 134.000
74.000 76.000 76.000
198.000 199.000 201.000
51.000 62.000 62.000
74.000 57.000 56.000
86.000 93.000 93.000
125.000 141.000 141.000
117.000 110.000 108.000
68.000 80.000 83.000
167.000 165.000 166.000
216.000 214.000 216.000
159.000 168.000 167.000
219.000 221.000 219.000
142.000 139.000 139.000
170.000 174.000 175.000
178.000 179.000 179.000
179.000 183.000 182.000
188.000 172.000 171.000
85.000 104.000 105.000
51.000 55.000 56.000
65.000 68.000 71.000
177.000 177.000 176.000
99.000 89.000 89.000
63.000 69.000 76.000
201.000 197.000 197.000
172.000 186.000 187.000
100.000 82.000 79.000
191.000 185.000 184.000
124.000 117.000 111.000
148.000 125.000 121.000
166.000 163.000 162.000
38.000 37.000 38.000
141.000 142.000 140.000
132.000 128.000 126.000
48.000 49.000 51.000
114.000 121.000 120.000
99.000 87.000 86.000
54.000 51.000 53.000
185.000 180.000 178.000
118.000 101.000 96.000
65.000 69.000 68.000
43.000 43.000 43.000
32.000 30.000 31.000
91.000 75.000 72.000
84.000 83.000 84.000
176.000 171.000 171.000
87.000 90.000 94.000
34.000 28.000 27.000
111.000 91.000 85.000
170.000 171.000 170.000
160.000 140.000 135.000
102.000 102.000 102.000
198.000 202.000 203.000
198.000 211.000 209.000
60.000 63.000 65.000
70.000 79.000 80.000
66.000 62.000 63.000
132.000 138.000 143.000
88.000 75.000 72.000
84.000 86.000 87.000
142.000 127.000 126.000
109.000 103.000 104.000
141.000 132.000 134.000
154.000 129.000 119.000
181.000 174.000 172.000
77.000 68.000 65.000
164.000 165.000 167.000
145.000 154.000 154.000
97.000 109.000 109.000
145.000 131.000 125.000
100.000 98.000 101.000
202.000 204.000 204.000
184.000 185.000 184.000
199.000 197.000 199.000
92.000 99.000 99.000
113.000 108.000 107.000
138.000 143.000 148.000
181.000 189.000 191.000
84.000 81.000 82.000
50.000 39.000 39.000
213.000 213.000 214.000
207.000 197.000 194.000
176.000 165.000 165.000
100.000 107.000 106.000
226.000 215.000 208.000
226.000 214.000 210.000
212.000 214.000 214.000
186.000 183.000 183.000
94.000 97.000 100.000
207.000 214.000 213.000
73.000 76.000 78.000
90.000 94.000 94.000
186.000 180.000 181.000
224.000 217.000 213.000
83.000 101.000 109.000
108.000 105.000 106.000
63.000 65.000 67.000
86.000 83.000 86.000
77.000 90.000 89.000
143.000 161.000 159.000
175.000 190.000 191.000
74.000 66.000 62.000
158.000 186.000 187.000
167.000 168.000 167.000
221.000 215.000 215.000
154.000 156.000 158.000
166.000 162.000 170.000
210.000 209.000 209.000
203.000 203.000 202.000
74.000 81.000 84.000
166.000 175.000 175.000
186.000 202.000 201.000
205.000 196.000 194.000
185.000 193.000 191.000
107.000 121.000 123.000
59.000 76.000 83.000
215.000 211.000 212.000
70.000 70.000 73.000
180.000 187.000 190.000
73.000 78.000 80.000
187.000 171.000 171.000
197.000 210.000 212.000
90.000 98.000 99.000
53.000 57.000 65.000
48.000 44.000 41.000
108.000 123.000 125.000
133.000 139.000 141.000
215.000 207.000 206.000
107.000 100.000 99.000
180.000 174.000 175.000
147.000 148.000 149.000
161.000 130.000 125.000
65.000 67.000 65.000
186.000 195.000 198.000
115.000 113.000 112.000
159.000 194.000 192.000
200.000 205.000 203.000
145.000 150.000 152.000
89.000 79.000 81.000
145.000 154.000 155.000
190.000 178.000 179.000
164.000 163.000 164.000
55.000 61.000 67.000
129.000 152.000 152.000
63.000 71.000 70.000
65.000 75.000 74.000
145.000 153.000 153.000
128.000 140.000 142.000
166.000 171.000 172.000
78.000 91.000 92.000
59.000 56.000 57.000
119.000 159.000 158.000
66.000 66.000 67.000
183.000 184.000 185.000
199.000 214.000 212.000
202.000 215.000 213.000
135.000 127.000 128.000
140.000 134.000 131.000
164.000 166.000 169.000
86.000 80.000 84.000
75.000 81.000 84.000
194.000 181.000 175.000
137.000 151.000 150.000
158.000 155.000 152.000
200.000 208.000 210.000
143.000 152.000 152.000
182.000 183.000 180.000
163.000 171.000 174.000
84.000 82.000 85.000
156.000 132.000 123.000
83.000 75.000 78.000
108.000 105.000 110.000
147.000 130.000 125.000
203.000 196.000 190.000
112.000 116.000 121.000
141.000 141.000 142.000
175.000 144.000 136.000
195.000 191.000 191.000
148.000 130.000 124.000
134.000 122.000 120.000
121.000 115.000 115.000
84.000 93.000 90.000
193.000 198.000 197.000
207.000 204.000 202.000
120.000 115.000 113.000
182.000 196.000 195.000
173.000 173.000 172.000
73.000 76.000 76.000
231.000 224.000 218.000
109.000 116.000 116.000
76.000 83.000 83.000
143.000 138.000 138.000
218.000 216.000 212.000
107.000 109.000 111.000
156.000 125.000 120.000
154.000 138.000 137.000
141.000 138.000 140.000
182.000 167.000 158.000
134.000 123.000 123.000
113.000 103.000 98.000
169.000 153.000 149.000
137.000 126.000 120.000
105.000 115.000 118.000
186.000 175.000 175.000
115.000 114.000 113.000
211.000 211.000 212.000
102.000 98.000 98.000
113.000 99.000 96.000
151.000 135.000 135.000
97.000 106.000 105.000
173.000 166.000 161.000
117.000 115.000 115.000
122.000 122.000 124.000
193.000 183.000 179.000
103.000 85.000 83.000
143.000 142.000 145.000
175.000 166.000 164.000
150.000 141.000 143.000
209.000 211.000 210.000
119.000 115.000 114.000
172.000 162.000 159.000
68.000 68.000 67.000
124.000 125.000 125.000
81.000 91.000 90.000
139.000 134.000 134.000
146.000 172.000 168.000
167.000 185.000 178.000
183.000 181.000 176.000
178.000 175.000 177.000
211.000 205.000 207.000
192.000 195.000 188.000
42.000 57.000 67.000
142.000 158.000 169.000
89.000 102.000 106.000
173.000 159.000 161.000
47.000 57.000 62.000
179.000 178.000 185.000
231.000 229.000 232.000
103.000 109.000 120.000
114.000 113.000 115.000
85.000 88.000 92.000
73.000 85.000 89.000
154.000 160.000 170.000
90.000 98.000 97.000
185.000 185.000 186.000
126.000 127.000 128.000
167.000 171.000 172.000
107.000 117.000 117.000
38.000 42.000 42.000
41.000 45.000 47.000
57.000 59.000 59.000
76.000 79.000 83.000
106.000 106.000 110.000
78.000 89.000 94.000
211.000 209.000 210.000
158.000 156.000 158.000
182.000 178.000 179.000
127.000 133.000 131.000
167.000 166.000 167.000
36.000 43.000 45.000
52.000 57.000 58.000
169.000 188.000 187.000
82.000 72.000 77.000
199.000 198.000 195.000
192.000 189.000 190.000
102.000 101.000 99.000
174.000 173.000 172.000
113.000 120.000 125.000
109.000 117.000 119.000
46.000 51.000 52.000
204.000 199.000 199.000
126.000 124.000 125.000
144.000 151.000 153.000
135.000 139.000 142.000
213.000 206.000 207.000
49.000 61.000 60.000
47.000 51.000 56.000
124.000 129.000 136.000
62.000 62.000 65.000
179.000 182.000 182.000
138.000 130.000 132.000
58.000 58.000 58.000
187.000 179.000 178.000
72.000 77.000 80.000
168.000 173.000 174.000
90.000 95.000 100.000
171.000 160.000 162.000
46.000 52.000 54.000
74.000 79.000 85.000
94.000 95.000 91.000
130.000 134.000 139.000
163.000 157.000 159.000
210.000 209.000 209.000
58.000 65.000 67.000
123.000 124.000 132.000
145.000 147.000 148.000
128.000 125.000 123.000
52.000 56.000 59.000
63.000 72.000 77.000
79.000 88.000 90.000
74.000 79.000 81.000
178.000 171.000 167.000
150.000 156.000 157.000
63.000 67.000 72.000
59.000 66.000 68.000
56.000 55.000 55.000
209.000 207.000 208.000
43.000 46.000 47.000
213.000 212.000 213.000
113.000 117.000 117.000
155.000 147.000 149.000
196.000 199.000 201.000
100.000 108.000 109.000
165.000 159.000 161.000
147.000 148.000 148.000
67.000 70.000 74.000
69.000 70.000 67.000
130.000 134.000 134.000
108.000 112.000 112.000
229.000 228.000 229.000
205.000 208.000 209.000
159.000 170.000 170.000
93.000 98.000 103.000
125.000 126.000 128.000
64.000 73.000 73.000
73.000 75.000 79.000
126.000 128.000 129.000
207.000 204.000 205.000
154.000 165.000 166.000
79.000 97.000 98.000
201.000 196.000 196.000
87.000 86.000 89.000
50.000 54.000 58.000
194.000 177.000 170.000
91.000 104.000 109.000
117.000 123.000 129.000
198.000 196.000 197.000
164.000 162.000 165.000
157.000 162.000 163.000
134.000 131.000 129.000
176.000 186.000 191.000
142.000 141.000 149.000
149.000 151.000 152.000
62.000 65.000 67.000
192.000 195.000 196.000
142.000 143.000 143.000
195.000 208.000 199.000
168.000 166.000 165.000
168.000 168.000 168.000
69.000 69.000 72.000
127.000 96.000 90.000
86.000 79.000 80.000
141.000 141.000 140.000
198.000 185.000 184.000
198.000 202.000 203.000
127.000 138.000 142.000
99.000 98.000 96.000
60.000 56.000 56.000
108.000 105.000 109.000
160.000 154.000 155.000
110.000 90.000 85.000
164.000 165.000 167.000
180.000 180.000 180.000
83.000 77.000 78.000
199.000 197.000 198.000
210.000 212.000 214.000
123.000 134.000 140.000
181.000 174.000 174.000
205.000 209.000 209.000
38.000 43.000 41.000
111.000 94.000 90.000
207.000 205.000 205.000
59.000 53.000 51.000
41.000 41.000 41.000
107.000 119.000 123.000
210.000 207.000 203.000
123.000 124.000 125.000
155.000 146.000 144.000
202.000 202.000 202.000
140.000 130.000 128.000
216.000 210.000 210.000
72.000 75.000 75.000
165.000 169.000 166.000
206.000 199.000 200.000
73.000 87.000 86.000
149.000 143.000 145.000
154.000 189.000 189.000
174.000 179.000 182.000
197.000 213.000 211.000
193.000 173.000 167.000
232.000 225.000 224.000
69.000 77.000 81.000
100.000 88.000 88.000
90.000 97.000 98.000
70.000 71.000 71.000
163.000 146.000 146.000
113.000 103.000 98.000
200.000 189.000 184.000
165.000 158.000 157.000
203.000 195.000 192.000
203.000 191.000 190.000
101.000 103.000 106.000
90.000 99.000 107.000
89.000 109.000 118.000
39.000 44.000 44.000
153.000 155.000 155.000
77.000 78.000 81.000
37.000 37.000 35.000
143.000 142.000 142.000
125.000 138.000 139.000
135.000 136.000 140.000
202.000 223.000 221.000
167.000 171.000 172.000
42.000 44.000 47.000
38.000 42.000 42.000
106.000 112.000 120.000
109.000 119.000 122.000
109.000 63.000 59.000
128.000 127.000 126.000
33.000 35.000 34.000
234.000 233.000 233.000
79.000 85.000 91.000
91.000 90.000 92.000
85.000 89.000 92.000
167.000 163.000 166.000
158.000 153.000 152.000
155.000 159.000 160.000
75.000 83.000 85.000
90.000 99.000 102.000
90.000 69.000 73.000
56.000 64.000 69.000
14.000 14.000 14.000
83.000 80.000 84.000
42.000 42.000 45.000
54.000 54.000 58.000
41.000 49.000 51.000
96.000 104.000 113.000
88.000 88.000 95.000
119.000 126.000 126.000
193.000 193.000 192.000
87.000 92.000 99.000
184.000 184.000 186.000
213.000 210.000 212.000
124.000 128.000 130.000
22.000 22.000 22.000
192.000 191.000 194.000
87.000 93.000 98.000
169.000 168.000 176.000
36.000 39.000 40.000
73.000 71.000 72.000
37.000 35.000 38.000
155.000 154.000 154.000
124.000 120.000 121.000
45.000 50.000 50.000
23.000 24.000 21.000
80.000 89.000 95.000
55.000 59.000 63.000
15.000 17.000 16.000
160.000 167.000 166.000
111.000 112.000 114.000
142.000 144.000 146.000
178.000 174.000 175.000
181.000 178.000 181.000
109.000 117.000 119.000
218.000 218.000 217.000
63.000 72.000 77.000
198.000 208.000 209.000
99.000 57.000 51.000
177.000 178.000 182.000
94.000 100.000 103.000
188.000 187.000 189.000
59.000 66.000 68.000
197.000 197.000 199.000
142.000 141.000 142.000
66.000 64.000 68.000
54.000 64.000 62.000
130.000 133.000 134.000
119.000 120.000 119.000
229.000 222.000 220.000
102.000 100.000 99.000
39.000 41.000 44.000
88.000 89.000 92.000
187.000 195.000 198.000
188.000 186.000 185.000
108.000 112.000 112.000
157.000 144.000 139.000
174.000 169.000 168.000
204.000 207.000 209.000
196.000 198.000 198.000
184.000 177.000 177.000
85.000 96.000 104.000
63.000 54.000 52.000
79.000 89.000 91.000
118.000 113.000 115.000
206.000 200.000 203.000
94.000 79.000 80.000
154.000 160.000 159.000
46.000 54.000 55.000
60.000 62.000 64.000
192.000 183.000 179.000
51.000 58.000 60.000
120.000 124.000 126.000
128.000 137.000 137.000
205.000 196.000 193.000
177.000 179.000 175.000
57.000 63.000 64.000
138.000 140.000 144.000
205.000 198.000 199.000
58.000 61.000 60.000
34.000 35.000 34.000
151.000 151.000 151.000
74.000 73.000 82.000
116.000 112.000 115.000
88.000 75.000 72.000
213.000 203.000 202.000
203.000 195.000 195.000
100.000 98.000 101.000
219.000 212.000 212.000
216.000 211.000 210.000
190.000 190.000 190.000
192.000 192.000 189.000
171.000 171.000 171.000
44.000 50.000 49.000
119.000 119.000 119.000
61.000 60.000 60.000
73.000 65.000 63.000
221.000 215.000 215.000
158.000 158.000 158.000
176.000 175.000 180.000
68.000 62.000 67.000
137.000 142.000 140.000
208.000 218.000 221.000
71.000 72.000 71.000
145.000 154.000 155.000
34.000 37.000 37.000
121.000 128.000 133.000
95.000 87.000 91.000
192.000 177.000 173.000
180.000 180.000 182.000
190.000 189.000 189.000
87.000 78.000 78.000
79.000 85.000 85.000
200.000 200.000 200.000
177.000 179.000 180.000
51.000 52.000 50.000
129.000 121.000 120.000
117.000 119.000 122.000
213.000 210.000 208.000
211.000 207.000 202.000
216.000 210.000 205.000
60.000 72.000 81.000
47.000 57.000 62.000
182.000 180.000 183.000
100.000 107.000 112.000
151.000 159.000 159.000
128.000 127.000 126.000
90.000 56.000 52.000
58.000 64.000 69.000
24.000 26.000 28.000
31.000 33.000 34.000
139.000 146.000 149.000
34.000 40.000 42.000
225.000 218.000 218.000
167.000 173.000 173.000
40.000 43.000 45.000
41.000 49.000 51.000
82.000 89.000 95.000
65.000 68.000 67.000
138.000 143.000 142.000
131.000 142.000 148.000
202.000 197.000 198.000
108.000 108.000 108.000
108.000 109.000 111.000
242.000 240.000 241.000
195.000 192.000 191.000
219.000 212.000 210.000
174.000 178.000 177.000
57.000 65.000 68.000
244.000 240.000 240.000
156.000 158.000 162.000
71.000 81.000 83.000
205.000 203.000 205.000
50.000 50.000 51.000
130.000 144.000 143.000
114.000 111.000 106.000
42.000 38.000 34.000
201.000 195.000 197.000
193.000 192.000 194.000
202.000 193.000 195.000
31.000 34.000 34.000
209.000 208.000 207.000
91.000 90.000 91.000
63.000 65.000 67.000
194.000 200.000 202.000
55.000 61.000 67.000
237.000 230.000 229.000
153.000 163.000 163.000
33.000 37.000 36.000
67.000 71.000 75.000
170.000 188.000 184.000
45.000 53.000 53.000
39.000 41.000 42.000
26.000 30.000 30.000
91.000 98.000 101.000
154.000 158.000 158.000
121.000 120.000 119.000
185.000 201.000 199.000
109.000 113.000 119.000
42.000 49.000 51.000
123.000 130.000 131.000
131.000 130.000 130.000
49.000 55.000 58.000
91.000 102.000 102.000
71.000 81.000 83.000
41.000 46.000 49.000
120.000 130.000 136.000
137.000 136.000 137.000
197.000 192.000 191.000
210.000 205.000 205.000
128.000 135.000 135.000
224.000 219.000 219.000
101.000 100.000 103.000
77.000 77.000 77.000
46.000 48.000 47.000
30.000 33.000 35.000
22.000 26.000 26.000
115.000 119.000 123.000
135.000 136.000 140.000
96.000 95.000 103.000
188.000 187.000 187.000
220.000 215.000 211.000
235.000 231.000 228.000
213.000 211.000 210.000
22.000 23.000 22.000
94.000 103.000 110.000
196.000 197.000 198.000
164.000 172.000 165.000
44.000 50.000 48.000
139.000 150.000 151.000
193.000 190.000 188.000
112.000 117.000 119.000
67.000 74.000 72.000
142.000 134.000 139.000
187.000 189.000 189.000
90.000 89.000 90.000
162.000 155.000 157.000
169.000 188.000 187.000
149.000 155.000 160.000
102.000 112.000 113.000
144.000 150.000 149.000
98.000 97.000 103.000
213.000 205.000 205.000
99.000 98.000 101.000
29.000 26.000 24.000
94.000 93.000 93.000
109.000 109.000 113.000
209.000 210.000 208.000
45.000 45.000 45.000
142.000 151.000 151.000
93.000 90.000 92.000
48.000 61.000 55.000
98.000 101.000 103.000
147.000 136.000 132.000
90.000 100.000 101.000
44.000 50.000 50.000
175.000 175.000 173.000
64.000 63.000 63.000
172.000 153.000 146.000
115.000 95.000 91.000
170.000 191.000 189.000
175.000 167.000 163.000
155.000 165.000 170.000
163.000 169.000 168.000
141.000 149.000 147.000
115.000 118.000 122.000
175.000 182.000 182.000
156.000 163.000 165.000
161.000 176.000 180.000
120.000 131.000 136.000
87.000 96.000 102.000
87.000 103.000 103.000
174.000 176.000 176.000
93.000 98.000 103.000
160.000 165.000 165.000
75.000 84.000 86.000
56.000 77.000 88.000
51.000 62.000 69.000
66.000 58.000 59.000
56.000 62.000 65.000
138.000 127.000 129.000
125.000 124.000 126.000
162.000 175.000 180.000
198.000 195.000 195.000
146.000 147.000 148.000
206.000 202.000 202.000
45.000 46.000 46.000
67.000 69.000 70.000
69.000 71.000 73.000
45.000 53.000 53.000
199.000 198.000 200.000
209.000 201.000 200.000
66.000 65.000 64.000
72.000 75.000 77.000
71.000 73.000 78.000
137.000 137.000 141.000
166.000 194.000 191.000
154.000 155.000 158.000
77.000 80.000 81.000
208.000 208.000 208.000
26.000 30.000 31.000
192.000 190.000 191.000
207.000 206.000 208.000
14.000 14.000 14.000
123.000 112.000 112.000
198.000 195.000 200.000
74.000 77.000 79.000
214.000 214.000 215.000
53.000 71.000 72.000
89.000 94.000 99.000
81.000 87.000 82.000
159.000 99.000 106.000
246.000 228.000 231.000
207.000 204.000 202.000
159.000 146.000 148.000
102.000 113.000 111.000
132.000 119.000 130.000
127.000 120.000 130.000
93.000 107.000 114.000
91.000 101.000 105.000
126.000 71.000 74.000
105.000 127.000 136.000
162.000 167.000 171.000
87.000 48.000 52.000
226.000 222.000 222.000
235.000 236.000 237.000
163.000 185.000 186.000
61.000 61.000 67.000
200.000 198.000 201.000
141.000 147.000 151.000
49.000 55.000 57.000
145.000 139.000 145.000
97.000 108.000 116.000
234.000 229.000 230.000
108.000 131.000 145.000
99.000 116.000 121.000
128.000 134.000 142.000
127.000 118.000 121.000
64.000 68.000 77.000
208.000 212.000 212.000
168.000 162.000 167.000
65.000 63.000 69.000
79.000 88.000 89.000
100.000 98.000 101.000
221.000 218.000 218.000
112.000 124.000 128.000
195.000 185.000 190.000
86.000 98.000 98.000
135.000 147.000 153.000
200.000 204.000 203.000
71.000 80.000 79.000
185.000 190.000 189.000
87.000 84.000 85.000
152.000 153.000 156.000
182.000 198.000 196.000
82.000 80.000 81.000
169.000 155.000 159.000
234.000 223.000 222.000
34.000 40.000 40.000
91.000 97.000 97.000
76.000 80.000 83.000
234.000 221.000 217.000
130.000 129.000 123.000
208.000 210.000 212.000
219.000 220.000 217.000
92.000 104.000 106.000
108.000 111.000 111.000
65.000 64.000 68.000
123.000 129.000 129.000
177.000 173.000 169.000
136.000 141.000 140.000
120.000 122.000 122.000
65.000 69.000 69.000
57.000 69.000 77.000
118.000 122.000 120.000
160.000 152.000 153.000
53.000 68.000 68.000
160.000 158.000 161.000
131.000 133.000 136.000
69.000 75.000 80.000
166.000 160.000 159.000
157.000 181.000 177.000
64.000 68.000 75.000
42.000 48.000 48.000
200.000 206.000 205.000
180.000 180.000 178.000
120.000 136.000 135.000
205.000 203.000 202.000
131.000 131.000 132.000
180.000 170.000 168.000
122.000 137.000 140.000
162.000 164.000 162.000
161.000 176.000 177.000
217.000 217.000 218.000
100.000 111.000 109.000
51.000 55.000 60.000
86.000 87.000 85.000
181.000 179.000 180.000
106.000 112.000 111.000
176.000 189.000 188.000
118.000 143.000 144.000
70.000 65.000 67.000
133.000 144.000 142.000
80.000 81.000 86.000
178.000 181.000 184.000
144.000 159.000 155.000
173.000 177.000 178.000
91.000 124.000 122.000
142.000 126.000 126.000
56.000 64.000 66.000
60.000 67.000 69.000
202.000 194.000 193.000
63.000 61.000 65.000
103.000 103.000 99.000
106.000 115.000 122.000
154.000 151.000 152.000
39.000 39.000 37.000
109.000 111.000 111.000
113.000 122.000 125.000
133.000 133.000 134.000
36.000 38.000 38.000
115.000 122.000 122.000
122.000 114.000 110.000
113.000 113.000 115.000
49.000 51.000 52.000
113.000 102.000 101.000
124.000 125.000 126.000
93.000 98.000 107.000
41.000 41.000 41.000
122.000 134.000 135.000
177.000 177.000 172.000
32.000 32.000 32.000
196.000 191.000 192.000
79.000 69.000 64.000
148.000 137.000 133.000
202.000 196.000 196.000
121.000 120.000 120.000
111.000 118.000 119.000
34.000 38.000 41.000
127.000 133.000 134.000
136.000 152.000 146.000
210.000 208.000 209.000
84.000 82.000 81.000
139.000 134.000 128.000
76.000 76.000 78.000
201.000 200.000 200.000
170.000 173.000 171.000
178.000 177.000 177.000
110.000 110.000 112.000
176.000 204.000 200.000
179.000 168.000 166.000
76.000 79.000 76.000
72.000 72.000 72.000
180.000 163.000 159.000
179.000 181.000 179.000
62.000 73.000 75.000
102.000 102.000 102.000
83.000 78.000 78.000
219.000 219.000 217.000
83.000 95.000 99.000
117.000 110.000 108.000
54.000 48.000 49.000
61.000 64.000 66.000
220.000 219.000 220.000
162.000 165.000 163.000
107.000 89.000 81.000
67.000 76.000 81.000
204.000 203.000 202.000
113.000 120.000 119.000
38.000 43.000 45.000
100.000 103.000 106.000
133.000 133.000 133.000
119.000 139.000 145.000
104.000 106.000 104.000
179.000 177.000 174.000
224.000 217.000 214.000
133.000 135.000 137.000
89.000 88.000 88.000
58.000 48.000 51.000
151.000 158.000 163.000
124.000 129.000 130.000
163.000 163.000 165.000
72.000 77.000 86.000
64.000 69.000 72.000
125.000 129.000 129.000
91.000 97.000 98.000
154.000 158.000 159.000
38.000 48.000 44.000
157.000 153.000 152.000
114.000 122.000 123.000
80.000 82.000 87.000
72.000 66.000 66.000
57.000 59.000 63.000
98.000 104.000 106.000
56.000 59.000 64.000
96.000 106.000 106.000
144.000 151.000 153.000
220.000 217.000 215.000
102.000 108.000 110.000
180.000 181.000 183.000
71.000 58.000 55.000
88.000 88.000 89.000
78.000 85.000 84.000
75.000 73.000 70.000
194.000 193.000 192.000
196.000 200.000 200.000
165.000 172.000 175.000
101.000 99.000 100.000
129.000 141.000 142.000
72.000 77.000 77.000
77.000 80.000 82.000
56.000 61.000 65.000
131.000 136.000 139.000
172.000 174.000 181.000
178.000 173.000 172.000
60.000 67.000 69.000
201.000 199.000 199.000
47.000 51.000 52.000
185.000 187.000 188.000
226.000 221.000 221.000
227.000 219.000 219.000
131.000 138.000 140.000
71.000 68.000 69.000
122.000 116.000 120.000
135.000 145.000 146.000
213.000 208.000 207.000
144.000 149.000 153.000
54.000 61.000 60.000
144.000 177.000 173.000
82.000 73.000 75.000
198.000 207.000 208.000
111.000 123.000 121.000
85.000 98.000 103.000
77.000 78.000 79.000
214.000 210.000 209.000
159.000 159.000 158.000
167.000 166.000 165.000
161.000 159.000 159.000
189.000 189.000 190.000
68.000 75.000 74.000
106.000 106.000 109.000
191.000 190.000 190.000
173.000 169.000 168.000
137.000 140.000 140.000
95.000 95.000 92.000
85.000 89.000 90.000
123.000 125.000 125.000
120.000 113.000 112.000
66.000 67.000 66.000
53.000 56.000 56.000
65.000 65.000 63.000
95.000 96.000 95.000
104.000 111.000 110.000
45.000 47.000 47.000
137.000 129.000 128.000
166.000 166.000 166.000
191.000 181.000 182.000
135.000 117.000 107.000
117.000 122.000 122.000
106.000 98.000 97.000
113.000 112.000 112.000
52.000 47.000 50.000
157.000 164.000 167.000
62.000 67.000 71.000
92.000 93.000 94.000
182.000 191.000 190.000
216.000 215.000 213.000
218.000 215.000 215.000
92.000 89.000 88.000
162.000 173.000 173.000
106.000 115.000 114.000
164.000 149.000 145.000
104.000 107.000 107.000
156.000 155.000 156.000
96.000 87.000 87.000
126.000 126.000 130.000
147.000 144.000 143.000
94.000 86.000 84.000
91.000 83.000 88.000
107.000 109.000 110.000
85.000 84.000 85.000
106.000 109.000 109.000
175.000 187.000 189.000
172.000 177.000 173.000
216.000 206.000 202.000
189.000 194.000 195.000
83.000 86.000 87.000
176.000 143.000 130.000
169.000 164.000 163.000
126.000 121.000 120.000
196.000 198.000 201.000
168.000 163.000 164.000
161.000 169.000 170.000
197.000 207.000 205.000
65.000 73.000 81.000
91.000 92.000 97.000
180.000 184.000 189.000
57.000 49.000 53.000
94.000 101.000 101.000
188.000 189.000 192.000
104.000 102.000 103.000
107.000 111.000 117.000
192.000 201.000 205.000
160.000 157.000 157.000
88.000 72.000 68.000
172.000 168.000 167.000
153.000 150.000 152.000
147.000 138.000 135.000
162.000 175.000 174.000
106.000 109.000 110.000
170.000 176.000 175.000
149.000 149.000 148.000
110.000 116.000 119.000
147.000 130.000 123.000
125.000 118.000 119.000
186.000 193.000 195.000
202.000 207.000 207.000
59.000 41.000 38.000
121.000 123.000 121.000
48.000 54.000 53.000
184.000 171.000 169.000
73.000 73.000 73.000
108.000 86.000 84.000
200.000 196.000 195.000
63.000 59.000 60.000
128.000 120.000 119.000
56.000 58.000 61.000
155.000 144.000 138.000
76.000 77.000 82.000
182.000 178.000 177.000
119.000 111.000 110.000
192.000 180.000 179.000
123.000 122.000 120.000
166.000 157.000 152.000
179.000 175.000 172.000
130.000 136.000 141.000
166.000 150.000 150.000
105.000 125.000 127.000
101.000 117.000 118.000
142.000 135.000 133.000
197.000 201.000 202.000
122.000 136.000 140.000
79.000 74.000 75.000
158.000 150.000 151.000
68.000 88.000 90.000
157.000 162.000 165.000
155.000 144.000 141.000
107.000 108.000 108.000
145.000 120.000 116.000
122.000 133.000 131.000
219.000 212.000 207.000
66.000 74.000 78.000
99.000 79.000 79.000
176.000 182.000 181.000
155.000 162.000 163.000
135.000 160.000 160.000
185.000 192.000 193.000
136.000 110.000 102.000
107.000 115.000 113.000
204.000 194.000 189.000
227.000 216.000 212.000
187.000 189.000 188.000
130.000 119.000 119.000
166.000 167.000 166.000
98.000 81.000 87.000
192.000 194.000 197.000
147.000 158.000 159.000
129.000 143.000 147.000
91.000 101.000 101.000
97.000 101.000 105.000
35.000 28.000 29.000
64.000 57.000 52.000
169.000 169.000 171.000
175.000 173.000 172.000
118.000 124.000 131.000
208.000 212.000 213.000
100.000 105.000 103.000
196.000 202.000 200.000
125.000 132.000 139.000
102.000 103.000 105.000
87.000 87.000 94.000
183.000 188.000 188.000
172.000 172.000 173.000
208.000 213.000 210.000
154.000 150.000 148.000
216.000 217.000 218.000
117.000 109.000 107.000
178.000 170.000 170.000
162.000 164.000 165.000
88.000 90.000 97.000
73.000 71.000 78.000
148.000 144.000 146.000
181.000 181.000 184.000
71.000 70.000 72.000
104.000 97.000 102.000
150.000 184.000 187.000
126.000 122.000 129.000
64.000 69.000 69.000
166.000 168.000 170.000
149.000 164.000 164.000
104.000 83.000 80.000
185.000 166.000 165.000
230.000 224.000 218.000
104.000 108.000 106.000
93.000 98.000 101.000
189.000 180.000 172.000
54.000 61.000 61.000
122.000 126.000 130.000
61.000 60.000 61.000
199.000 196.000 194.000
82.000 82.000 82.000
176.000 175.000 169.000
197.000 182.000 179.000
190.000 184.000 178.000
76.000 77.000 80.000
208.000 202.000 195.000
147.000 157.000 152.000
222.000 196.000 186.000
183.000 188.000 186.000
170.000 187.000 186.000
222.000 216.000 211.000
163.000 165.000 161.000
113.000 110.000 111.000
222.000 216.000 208.000
93.000 94.000 92.000
188.000 191.000 188.000
85.000 89.000 86.000
183.000 181.000 177.000
133.000 135.000 136.000
202.000 184.000 179.000
177.000 171.000 171.000
78.000 79.000 78.000
188.000 197.000 195.000
143.000 134.000 133.000
129.000 129.000 129.000
175.000 182.000 182.000
195.000 183.000 178.000
114.000 115.000 111.000
83.000 82.000 81.000
115.000 93.000 89.000
115.000 113.000 111.000
71.000 85.000 90.000
77.000 72.000 72.000
154.000 153.000 154.000
196.000 200.000 196.000
165.000 159.000 149.000
231.000 229.000 229.000
176.000 159.000 162.000
195.000 187.000 187.000
153.000 145.000 148.000
58.000 58.000 59.000
208.000 196.000 196.000
124.000 126.000 126.000
129.000 137.000 141.000
87.000 85.000 84.000
58.000 62.000 63.000
185.000 191.000 189.000
231.000 229.000 230.000
86.000 91.000 94.000
144.000 144.000 148.000
117.000 113.000 114.000
99.000 109.000 111.000
59.000 58.000 57.000
169.000 166.000 166.000
170.000 173.000 173.000
106.000 109.000 108.000
189.000 187.000 188.000
94.000 97.000 98.000
83.000 81.000 88.000
54.000 61.000 63.000
178.000 177.000 181.000
145.000 148.000 150.000
190.000 192.000 191.000
100.000 104.000 105.000
132.000 135.000 138.000
148.000 146.000 150.000
137.000 138.000 144.000
161.000 160.000 163.000
188.000 185.000 186.000
56.000 57.000 59.000
150.000 151.000 151.000
73.000 76.000 77.000
142.000 152.000 152.000
58.000 58.000 61.000
183.000 184.000 183.000
157.000 163.000 164.000
132.000 136.000 135.000
78.000 80.000 83.000
152.000 143.000 140.000
68.000 73.000 73.000
62.000 69.000 71.000
142.000 153.000 154.000
186.000 180.000 182.000
173.000 169.000 166.000
239.000 234.000 232.000
95.000 101.000 99.000
181.000 178.000 178.000
154.000 155.000 154.000
67.000 74.000 74.000
109.000 124.000 127.000
160.000 159.000 159.000
136.000 144.000 144.000
105.000 116.000 113.000
122.000 122.000 123.000
215.000 205.000 199.000
133.000 141.000 141.000
163.000 163.000 163.000
111.000 102.000 98.000
87.000 60.000 55.000
144.000 153.000 156.000
71.000 49.000 47.000
91.000 91.000 93.000
241.000 217.000 211.000
195.000 181.000 176.000
125.000 126.000 122.000
200.000 205.000 204.000
88.000 95.000 90.000
116.000 111.000 113.000
121.000 126.000 132.000
143.000 155.000 152.000
202.000 210.000 210.000
33.000 37.000 36.000
127.000 143.000 146.000
151.000 155.000 159.000
152.000 160.000 162.000
181.000 178.000 177.000
163.000 167.000 168.000
107.000 118.000 122.000
40.000 49.000 49.000
216.000 213.000 211.000
136.000 122.000 122.000
189.000 182.000 176.000
187.000 186.000 189.000
40.000 45.000 47.000
36.000 47.000 46.000
201.000 199.000 200.000
57.000 54.000 56.000
120.000 139.000 143.000
193.000 204.000 202.000
62.000 78.000 80.000
89.000 95.000 100.000
249.000 249.000 249.000
70.000 74.000 76.000
35.000 41.000 44.000
88.000 89.000 89.000
24.000 27.000 27.000
31.000 39.000 39.000
51.000 55.000 61.000
90.000 97.000 97.000
118.000 121.000 125.000
55.000 63.000 69.000
67.000 68.000 75.000
143.000 144.000 144.000
39.000 39.000 37.000
136.000 137.000 143.000
99.000 106.000 113.000
78.000 93.000 93.000
203.000 201.000 202.000
57.000 63.000 65.000
88.000 96.000 99.000
52.000 64.000 64.000
74.000 84.000 90.000
182.000 183.000 183.000
97.000 105.000 112.000
171.000 177.000 173.000
97.000 90.000 90.000
31.000 32.000 32.000
25.000 25.000 22.000
62.000 69.000 71.000
106.000 104.000 109.000
42.000 49.000 50.000
179.000 159.000 156.000
98.000 102.000 103.000
64.000 64.000 75.000
110.000 110.000 110.000
211.000 209.000 208.000
108.000 129.000 127.000
189.000 188.000 187.000
107.000 106.000 104.000
128.000 133.000 133.000
215.000 215.000 212.000
34.000 36.000 34.000
206.000 201.000 200.000
80.000 88.000 91.000
219.000 210.000 207.000
81.000 81.000 80.000
198.000 195.000 194.000
108.000 111.000 115.000
25.000 28.000 30.000
133.000 117.000 115.000
71.000 72.000 76.000
68.000 71.000 78.000
54.000 54.000 57.000
95.000 95.000 94.000
195.000 188.000 182.000
187.000 185.000 186.000
213.000 211.000 210.000
151.000 152.000 152.000
58.000 54.000 56.000
197.000 196.000 189.000
171.000 170.000 170.000
49.000 59.000 58.000
60.000 72.000 71.000
218.000 213.000 209.000
230.000 221.000 222.000
138.000 127.000 125.000
176.000 180.000 179.000
196.000 196.000 196.000
121.000 123.000 121.000
207.000 199.000 194.000
111.000 110.000 109.000
172.000 186.000 184.000
155.000 141.000 140.000
68.000 71.000 70.000
146.000 135.000 134.000
137.000 134.000 134.000
42.000 38.000 32.000
82.000 85.000 95.000
49.000 46.000 46.000
206.000 202.000 203.000
196.000 196.000 196.000
193.000 185.000 185.000
213.000 211.000 211.000
52.000 53.000 51.000
177.000 163.000 164.000
44.000 48.000 48.000
49.000 56.000 56.000
38.000 29.000 30.000
165.000 167.000 167.000
199.000 202.000 202.000
108.000 73.000 67.000
218.000 217.000 216.000
78.000 77.000 76.000
85.000 93.000 94.000
170.000 170.000 170.000
190.000 194.000 191.000
176.000 179.000 174.000
110.000 111.000 117.000
162.000 158.000 154.000
192.000 186.000 184.000
202.000 197.000 197.000
236.000 224.000 223.000
87.000 94.000 97.000
220.000 217.000 216.000
165.000 169.000 167.000
216.000 222.000 224.000
64.000 82.000 80.000
61.000 68.000 69.000
47.000 51.000 52.000
56.000 63.000 70.000
138.000 138.000 141.000
131.000 133.000 133.000
57.000 66.000 69.000
22.000 25.000 25.000
131.000 131.000 131.000
160.000 166.000 167.000
171.000 172.000 173.000
122.000 116.000 118.000
177.000 177.000 175.000
198.000 194.000 194.000
47.000 50.000 52.000
247.000 246.000 244.000
235.000 236.000 238.000
114.000 126.000 127.000
60.000 62.000 68.000
194.000 191.000 188.000
224.000 214.000 209.000
100.000 90.000 90.000
178.000 169.000 165.000
29.000 28.000 28.000
40.000 41.000 41.000
213.000 211.000 211.000
100.000 87.000 84.000
56.000 54.000 54.000
61.000 70.000 72.000
52.000 60.000 65.000
52.000 59.000 59.000
95.000 102.000 104.000
111.000 117.000 116.000
47.000 48.000 49.000
181.000 181.000 178.000
155.000 155.000 152.000
85.000 86.000 86.000
24.000 28.000 29.000
25.000 25.000 25.000
191.000 194.000 196.000
91.000 83.000 88.000
158.000 159.000 157.000
64.000 66.000 76.000
182.000 176.000 174.000
131.000 129.000 129.000
234.000 232.000 231.000
212.000 210.000 216.000
47.000 49.000 50.000
213.000 205.000 204.000
218.000 215.000 216.000
184.000 183.000 184.000
112.000 118.000 124.000
110.000 122.000 122.000
148.000 149.000 154.000
179.000 179.000 180.000
41.000 42.000 42.000
96.000 86.000 88.000
55.000 62.000 63.000
47.000 52.000 57.000
151.000 162.000 161.000
138.000 139.000 137.000
110.000 122.000 126.000
95.000 96.000 99.000
76.000 82.000 88.000
119.000 127.000 127.000
58.000 62.000 67.000
144.000 145.000 151.000
83.000 93.000 95.000
118.000 127.000 126.000
176.000 171.000 169.000
189.000 193.000 191.000
79.000 82.000 90.000
164.000 172.000 172.000
82.000 94.000 97.000
106.000 111.000 110.000
190.000 191.000 192.000
195.000 191.000 187.000
201.000 212.000 213.000
135.000 139.000 140.000
204.000 207.000 209.000
159.000 155.000 157.000
205.000 206.000 205.000
89.000 100.000 100.000
169.000 177.000 179.000
81.000 82.000 79.000
51.000 56.000 56.000
116.000 110.000 113.000
164.000 164.000 163.000
180.000 178.000 178.000
160.000 157.000 156.000
62.000 65.000 68.000
56.000 61.000 69.000
66.000 69.000 72.000
188.000 187.000 188.000
209.000 212.000 210.000
118.000 96.000 96.000
90.000 101.000 107.000
212.000 213.000 211.000
62.000 61.000 61.000
53.000 55.000 55.000
80.000 85.000 84.000
177.000 164.000 173.000
226.000 223.000 224.000
143.000 147.000 152.000
204.000 212.000 205.000
193.000 211.000 207.000
204.000 198.000 199.000
61.000 56.000 59.000
74.000 79.000 80.000
188.000 195.000 197.000
197.000 192.000 193.000
124.000 117.000 125.000
142.000 126.000 129.000
190.000 191.000 195.000
201.000 202.000 209.000
187.000 189.000 188.000
75.000 83.000 81.000
226.000 216.000 218.000
65.000 65.000 72.000
97.000 107.000 108.000
100.000 75.000 77.000
90.000 92.000 96.000
110.000 128.000 127.000
103.000 96.000 99.000
218.000 217.000 217.000
196.000 177.000 179.000
162.000 162.000 163.000
184.000 201.000 197.000
139.000 123.000 121.000
231.000 232.000 230.000
213.000 215.000 222.000
197.000 201.000 199.000
205.000 211.000 213.000
200.000 206.000 206.000
185.000 182.000 189.000
165.000 171.000 177.000
186.000 203.000 202.000
188.000 182.000 183.000
104.000 109.000 116.000
143.000 146.000 149.000
159.000 163.000 167.000
217.000 209.000 210.000
63.000 78.000 77.000
172.000 176.000 177.000
78.000 76.000 83.000
186.000 194.000 195.000
89.000 94.000 92.000
113.000 120.000 123.000
144.000 153.000 157.000
162.000 169.000 172.000
189.000 181.000 184.000
133.000 146.000 149.000
144.000 148.000 150.000
164.000 171.000 177.000
161.000 159.000 161.000
134.000 131.000 133.000
136.000 142.000 140.000
87.000 96.000 93.000
115.000 119.000 126.000
92.000 114.000 111.000
48.000 54.000 61.000
55.000 57.000 61.000
116.000 121.000 126.000
115.000 127.000 128.000
68.000 74.000 78.000
43.000 59.000 57.000
41.000 51.000 52.000
85.000 72.000 72.000
227.000 226.000 229.000
195.000 185.000 180.000
99.000 103.000 105.000
99.000 87.000 89.000
240.000 242.000 242.000
138.000 147.000 150.000
71.000 80.000 82.000
162.000 164.000 164.000
140.000 148.000 156.000
209.000 209.000 206.000
165.000 166.000 167.000
149.000 169.000 168.000
140.000 146.000 146.000
82.000 76.000 71.000
102.000 115.000 113.000
161.000 152.000 151.000
20.000 21.000 19.000
86.000 112.000 108.000
111.000 115.000 116.000
107.000 119.000 120.000
51.000 69.000 68.000
63.000 59.000 62.000
152.000 146.000 147.000
108.000 117.000 116.000
172.000 165.000 167.000
82.000 92.000 96.000
205.000 204.000 202.000
89.000 91.000 97.000
121.000 131.000 134.000
136.000 141.000 142.000
66.000 74.000 77.000
25.000 26.000 27.000
195.000 185.000 184.000
90.000 108.000 111.000
137.000 134.000 136.000
86.000 95.000 102.000
136.000 147.000 145.000
50.000 53.000 52.000
108.000 109.000 108.000
163.000 169.000 167.000
65.000 67.000 70.000
78.000 68.000 68.000
204.000 195.000 195.000
174.000 176.000 178.000
115.000 117.000 115.000
156.000 161.000 165.000
116.000 133.000 138.000
178.000 177.000 176.000
94.000 102.000 107.000
186.000 185.000 184.000
47.000 57.000 59.000
134.000 139.000 139.000
85.000 76.000 77.000
120.000 127.000 128.000
151.000 156.000 158.000
64.000 64.000 69.000
215.000 211.000 211.000
40.000 47.000 46.000
132.000 140.000 143.000
54.000 55.000 59.000
74.000 75.000 76.000
164.000 166.000 166.000
51.000 57.000 57.000
120.000 133.000 132.000
165.000 162.000 166.000
171.000 174.000 174.000
132.000 132.000 134.000
96.000 99.000 101.000
188.000 190.000 190.000
97.000 90.000 94.000
152.000 153.000 154.000
98.000 99.000 98.000
157.000 156.000 159.000
206.000 207.000 212.000
121.000 111.000 108.000
154.000 152.000 151.000
196.000 196.000 197.000
97.000 110.000 110.000
55.000 60.000 70.000
200.000 201.000 204.000
87.000 94.000 97.000
176.000 177.000 178.000
159.000 166.000 167.000
116.000 111.000 109.000
191.000 189.000 187.000
130.000 131.000 136.000
65.000 78.000 79.000
152.000 155.000 158.000
114.000 113.000 113.000
136.000 135.000 136.000
79.000 83.000 88.000
141.000 155.000 158.000
175.000 175.000 178.000
67.000 70.000 73.000
158.000 159.000 158.000
65.000 72.000 77.000
87.000 82.000 86.000
219.000 210.000 205.000
72.000 74.000 77.000
155.000 156.000 162.000
56.000 59.000 65.000
194.000 194.000 193.000
219.000 219.000 220.000
212.000 213.000 212.000
139.000 167.000 168.000
173.000 173.000 171.000
205.000 209.000 209.000
88.000 99.000 104.000
189.000 185.000 188.000
132.000 130.000 131.000
171.000 164.000 163.000
86.000 92.000 95.000
57.000 57.000 56.000
167.000 159.000 158.000
161.000 164.000 164.000
161.000 148.000 141.000
137.000 136.000 138.000
179.000 168.000 169.000
164.000 160.000 165.000
181.000 167.000 168.000
74.000 77.000 82.000
179.000 180.000 176.000
214.000 215.000 214.000
90.000 104.000 103.000
55.000 57.000 59.000
138.000 128.000 128.000
122.000 133.000 139.000
104.000 73.000 70.000
69.000 68.000 68.000
172.000 192.000 189.000
186.000 191.000 194.000
125.000 115.000 116.000
218.000 212.000 216.000
203.000 195.000 196.000
98.000 100.000 99.000
130.000 128.000 128.000
99.000 99.000 105.000
199.000 187.000 187.000
186.000 183.000 186.000
135.000 129.000 130.000
180.000 186.000 186.000
164.000 165.000 167.000
224.000 229.000 227.000
148.000 145.000 147.000
71.000 66.000 66.000
128.000 128.000 128.000
32.000 40.000 42.000
83.000 60.000 58.000
102.000 108.000 106.000
235.000 225.000 225.000
60.000 63.000 65.000
142.000 141.000 139.000
145.000 135.000 133.000
82.000 72.000 74.000
113.000 109.000 111.000
77.000 66.000 66.000
191.000 182.000 179.000
240.000 231.000 223.000
92.000 80.000 82.000
58.000 56.000 55.000
138.000 145.000 147.000
216.000 217.000 219.000
102.000 103.000 101.000
83.000 75.000 71.000
130.000 116.000 112.000
126.000 136.000 135.000
200.000 191.000 188.000
190.000 198.000 199.000
132.000 116.000 118.000
177.000 180.000 179.000
107.000 115.000 121.000
55.000 53.000 55.000
76.000 68.000 68.000
45.000 57.000 56.000
150.000 160.000 158.000
183.000 184.000 178.000
132.000 144.000 143.000
162.000 141.000 131.000
58.000 31.000 26.000
66.000 69.000 68.000
193.000 200.000 200.000
216.000 201.000 199.000
172.000 174.000 181.000
109.000 96.000 95.000
117.000 111.000 110.000
167.000 163.000 162.000
126.000 162.000 161.000
88.000 99.000 100.000
22.000 23.000 23.000
63.000 75.000 74.000
166.000 165.000 164.000
74.000 83.000 84.000
84.000 70.000 74.000
99.000 106.000 102.000
113.000 112.000 112.000
100.000 98.000 99.000
53.000 53.000 55.000
196.000 205.000 206.000
48.000 54.000 55.000
49.000 39.000 36.000
224.000 217.000 217.000
167.000 158.000 158.000
140.000 155.000 161.000
72.000 68.000 69.000
97.000 112.000 110.000
65.000 67.000 60.000
210.000 213.000 212.000
191.000 193.000 194.000
187.000 190.000 188.000
173.000 175.000 174.000
91.000 86.000 95.000
96.000 95.000 96.000
100.000 112.000 112.000
132.000 135.000 142.000
143.000 151.000 155.000
157.000 159.000 159.000
183.000 189.000 188.000
100.000 99.000 106.000
110.000 123.000 129.000
193.000 203.000 205.000
89.000 95.000 104.000
112.000 113.000 114.000
91.000 93.000 100.000
79.000 79.000 73.000
159.000 198.000 195.000
210.000 214.000 212.000
141.000 132.000 139.000
126.000 120.000 122.000
120.000 114.000 116.000
73.000 75.000 81.000
103.000 97.000 100.000
219.000 215.000 208.000
122.000 102.000 100.000
70.000 63.000 72.000
108.000 108.000 109.000
193.000 171.000 165.000
207.000 179.000 172.000
208.000 212.000 209.000
212.000 215.000 210.000
162.000 154.000 152.000
168.000 171.000 174.000
148.000 137.000 135.000
187.000 183.000 186.000
152.000 149.000 153.000
176.000 189.000 188.000
189.000 190.000 192.000
99.000 88.000 88.000
205.000 204.000 205.000
138.000 115.000 117.000
97.000 94.000 93.000
99.000 102.000 107.000
171.000 171.000 174.000
34.000 38.000 39.000
63.000 75.000 87.000
115.000 113.000 115.000
119.000 136.000 146.000
72.000 78.000 80.000
219.000 219.000 219.000
39.000 39.000 43.000
112.000 123.000 127.000
54.000 50.000 52.000
113.000 113.000 115.000
128.000 135.000 139.000
59.000 72.000 73.000
83.000 90.000 95.000
186.000 192.000 191.000
92.000 90.000 90.000
181.000 183.000 183.000
175.000 154.000 148.000
123.000 123.000 129.000
166.000 170.000 175.000
157.000 153.000 149.000
29.000 40.000 32.000
176.000 181.000 177.000
118.000 126.000 124.000
102.000 108.000 109.000
188.000 178.000 176.000
35.000 40.000 45.000
162.000 141.000 141.000
155.000 155.000 158.000
75.000 73.000 74.000
196.000 190.000 185.000
116.000 120.000 119.000
182.000 196.000 196.000
136.000 127.000 128.000
35.000 36.000 39.000
51.000 54.000 55.000
108.000 103.000 109.000
137.000 144.000 143.000
137.000 144.000 143.000
121.000 115.000 112.000
151.000 144.000 141.000
132.000 144.000 143.000
82.000 86.000 88.000
186.000 188.000 188.000
168.000 178.000 176.000
78.000 87.000 86.000
121.000 169.000 170.000
152.000 148.000 156.000
96.000 102.000 107.000
198.000 212.000 212.000
210.000 209.000 206.000
95.000 106.000 105.000
117.000 109.000 109.000
101.000 112.000 111.000
223.000 217.000 211.000
183.000 182.000 182.000
174.000 195.000 193.000
156.000 150.000 153.000
133.000 132.000 133.000
111.000 109.000 114.000
132.000 124.000 123.000
123.000 122.000 127.000
217.000 212.000 214.000
212.000 211.000 216.000
103.000 119.000 121.000
248.000 246.000 247.000
219.000 223.000 226.000
49.000 49.000 49.000
204.000 202.000 201.000
88.000 90.000 92.000
138.000 140.000 147.000
103.000 109.000 114.000
43.000 47.000 52.000
121.000 145.000 151.000
45.000 49.000 55.000
153.000 138.000 140.000
47.000 55.000 58.000
104.000 105.000 110.000
41.000 42.000 42.000
209.000 202.000 200.000
106.000 113.000 113.000
106.000 118.000 120.000
118.000 125.000 127.000
208.000 201.000 200.000
118.000 116.000 122.000
50.000 63.000 67.000
152.000 144.000 147.000
58.000 53.000 55.000
182.000 179.000 181.000
56.000 62.000 68.000
81.000 83.000 83.000
230.000 229.000 230.000
97.000 98.000 106.000
54.000 59.000 66.000
142.000 161.000 156.000
136.000 139.000 141.000
181.000 182.000 184.000
190.000 195.000 197.000
66.000 73.000 73.000
206.000 208.000 206.000
73.000 71.000 72.000
174.000 177.000 176.000
162.000 159.000 155.000
89.000 89.000 90.000
134.000 114.000 111.000
207.000 194.000 194.000
77.000 74.000 73.000
116.000 124.000 124.000
148.000 135.000 134.000
238.000 233.000 234.000
43.000 47.000 48.000
167.000 171.000 169.000
123.000 122.000 122.000
104.000 106.000 109.000
170.000 170.000 167.000
59.000 60.000 59.000
197.000 199.000 201.000
92.000 92.000 94.000
92.000 86.000 91.000
86.000 93.000 94.000
73.000 73.000 75.000
181.000 182.000 180.000
95.000 96.000 96.000
136.000 141.000 140.000
87.000 95.000 101.000
122.000 121.000 121.000
217.000 209.000 211.000
216.000 217.000 215.000
51.000 51.000 54.000
202.000 198.000 198.000
58.000 64.000 65.000
216.000 216.000 216.000
213.000 211.000 213.000
104.000 118.000 121.000
32.000 35.000 33.000
104.000 102.000 107.000
167.000 158.000 158.000
75.000 76.000 78.000
213.000 208.000 207.000
175.000 174.000 172.000
180.000 193.000 195.000
122.000 132.000 137.000
181.000 169.000 162.000
205.000 200.000 194.000
204.000 204.000 202.000
90.000 93.000 93.000
92.000 91.000 93.000
192.000 180.000 172.000
216.000 208.000 203.000
120.000 119.000 121.000
80.000 82.000 79.000
162.000 158.000 161.000
133.000 131.000 139.000
60.000 76.000 78.000
222.000 222.000 218.000
116.000 120.000 122.000
242.000 239.000 237.000
168.000 171.000 173.000
170.000 170.000 171.000
223.000 205.000 206.000
173.000 182.000 188.000
112.000 118.000 120.000
121.000 121.000 122.000
199.000 199.000 199.000
197.000 191.000 191.000
63.000 55.000 54.000
89.000 91.000 90.000
149.000 159.000 157.000
212.000 206.000 205.000
36.000 33.000 35.000
183.000 180.000 180.000
200.000 192.000 191.000
80.000 83.000 84.000
141.000 142.000 147.000
24.000 26.000 28.000
20.000 20.000 19.000
38.000 42.000 41.000
186.000 185.000 184.000
83.000 80.000 81.000
61.000 57.000 61.000
